-0.197619,-0.545299,1.185000
-0.193893,-0.543919,1.182000
-0.190506,-0.543459,1.181000
-0.186966,-0.542538,1.179000
-0.183592,-0.542078,1.178000
-0.180224,-0.541618,1.177000
-0.177162,-0.542078,1.178000
-0.173800,-0.541618,1.177000
-0.170733,-0.542078,1.178000
-0.167233,-0.541158,1.176000
-0.163884,-0.540698,1.175000
-0.160404,-0.539777,1.173000
-0.157337,-0.540237,1.174000
-0.154396,-0.541158,1.176000
-0.151186,-0.541158,1.176000
-0.148354,-0.542538,1.179000
-0.145998,-0.545759,1.186000
-0.142641,-0.545299,1.185000
-0.138231,-0.540698,1.175000
-0.134680,-0.539317,1.172000
-0.131481,-0.539317,1.172000
-0.128283,-0.539317,1.172000
-0.125084,-0.539317,1.172000
-0.121782,-0.538857,1.171000
-0.118687,-0.539317,1.172000
-0.115489,-0.539317,1.172000
-0.112194,-0.538857,1.171000
-0.108905,-0.538397,1.170000
-0.105622,-0.537937,1.169000
-0.102432,-0.537937,1.169000
-0.099326,-0.538397,1.170000
-0.096216,-0.538857,1.171000
-0.093020,-0.538857,1.171000
-0.089824,-0.538857,1.171000
-0.086628,-0.538857,1.171000
-0.083504,-0.539317,1.172000
-0.080374,-0.539777,1.173000
-0.077173,-0.539777,1.173000
-0.074097,-0.540698,1.175000
-0.071132,-0.542538,1.179000
-0.068318,-0.545759,1.186000
-0.065520,-0.549441,1.194000
-0.062835,-0.554503,1.205000
-0.060387,-0.562325,1.222000
-0.057985,-0.571529,1.242000
-0.233039,-0.557161,1.218000
-0.226320,-0.548927,1.200000
-0.220814,-0.543438,1.188000
-0.217023,-0.542065,1.185000
-0.213608,-0.541608,1.184000
-0.210199,-0.541150,1.183000
-0.206971,-0.541150,1.183000
-0.203226,-0.539778,1.180000
-0.199666,-0.538863,1.178000
-0.196452,-0.538863,1.178000
-0.193073,-0.538406,1.177000
-0.189699,-0.537948,1.176000
-0.186490,-0.537948,1.176000
-0.183125,-0.537491,1.175000
-0.180071,-0.537948,1.176000
-0.176862,-0.537948,1.176000
-0.173652,-0.537948,1.176000
-0.170298,-0.537491,1.175000
-0.166949,-0.537033,1.174000
-0.163606,-0.536576,1.173000
-0.160268,-0.536119,1.172000
-0.157069,-0.536119,1.172000
-0.154133,-0.537033,1.174000
-0.150801,-0.536576,1.173000
-0.148103,-0.538406,1.177000
-0.145014,-0.538863,1.178000
-0.142280,-0.540693,1.182000
-0.138113,-0.537033,1.174000
-0.134680,-0.536119,1.172000
-0.131369,-0.535661,1.171000
-0.128173,-0.535661,1.171000
-0.124764,-0.534746,1.169000
-0.121678,-0.535204,1.170000
-0.118485,-0.535204,1.170000
-0.115390,-0.535661,1.171000
-0.112099,-0.535204,1.170000
-0.108812,-0.534746,1.169000
-0.105441,-0.533831,1.167000
-0.102257,-0.533831,1.167000
-0.099157,-0.534289,1.168000
-0.096051,-0.534746,1.169000
-0.092861,-0.534746,1.169000
-0.089671,-0.534746,1.169000
-0.086480,-0.534746,1.169000
-0.083361,-0.535204,1.170000
-0.080237,-0.535661,1.171000
-0.077107,-0.536119,1.172000
-0.074034,-0.537033,1.174000
-0.071072,-0.538863,1.178000
-0.068145,-0.541150,1.183000
-0.065301,-0.544352,1.190000
-0.062574,-0.548927,1.200000
-0.060140,-0.556703,1.217000
-0.057659,-0.564937,1.235000
-0.241015,-0.549290,1.208000
-0.235554,-0.544288,1.197000
-0.231123,-0.541560,1.191000
-0.227681,-0.541105,1.190000
-0.223868,-0.539741,1.187000
-0.219699,-0.537467,1.182000
-0.216107,-0.536558,1.180000
-0.213067,-0.537012,1.181000
-0.209844,-0.537012,1.181000
-0.206446,-0.536558,1.180000
-0.203226,-0.536558,1.180000
-0.199666,-0.535648,1.178000
-0.196452,-0.535648,1.178000
-0.193073,-0.535194,1.177000
-0.189861,-0.535194,1.177000
-0.186648,-0.535194,1.177000
-0.183436,-0.535194,1.177000
-0.180224,-0.535194,1.177000
-0.177012,-0.535194,1.177000
-0.173652,-0.534739,1.176000
-0.170298,-0.534284,1.175000
-0.167091,-0.534284,1.175000
-0.164024,-0.534739,1.176000
-0.160815,-0.534739,1.176000
-0.157605,-0.534739,1.176000
-0.154264,-0.534284,1.175000
-0.151058,-0.534284,1.175000
-0.147977,-0.534739,1.176000
-0.145137,-0.536103,1.179000
-0.141919,-0.536103,1.179000
-0.138466,-0.535194,1.177000
-0.134909,-0.533830,1.174000
-0.131593,-0.533375,1.173000
-0.128283,-0.532920,1.172000
-0.125084,-0.532920,1.172000
-0.121990,-0.533375,1.173000
-0.118788,-0.533375,1.173000
-0.115489,-0.532920,1.172000
-0.112099,-0.532011,1.170000
-0.108812,-0.531556,1.169000
-0.105622,-0.531556,1.169000
-0.102519,-0.532011,1.170000
-0.099411,-0.532465,1.171000
-0.096216,-0.532465,1.171000
-0.093099,-0.532920,1.172000
-0.089901,-0.532920,1.172000
-0.086702,-0.532920,1.172000
-0.083504,-0.532920,1.172000
-0.080374,-0.533375,1.173000
-0.077238,-0.533830,1.174000
-0.074160,-0.534739,1.176000
-0.071132,-0.536103,1.179000
-0.068202,-0.538377,1.184000
-0.065191,-0.540195,1.188000
-0.062366,-0.543833,1.196000
-0.059744,-0.549744,1.209000
-0.057705,-0.562021,1.236000
-0.249452,-0.542829,1.201000
-0.244534,-0.539213,1.193000
-0.240470,-0.537405,1.189000
-0.236826,-0.536501,1.187000
-0.232799,-0.534693,1.183000
-0.229182,-0.533789,1.181000
-0.225577,-0.532885,1.179000
-0.222359,-0.532885,1.179000
-0.218770,-0.531981,1.177000
-0.215374,-0.531529,1.176000
-0.212345,-0.531981,1.177000
-0.209311,-0.532433,1.178000
-0.205921,-0.531981,1.177000
-0.202709,-0.531981,1.177000
-0.199327,-0.531529,1.176000
-0.196118,-0.531529,1.176000
-0.192909,-0.531529,1.176000
-0.189538,-0.531078,1.175000
-0.186490,-0.531529,1.176000
-0.183280,-0.531529,1.176000
-0.180224,-0.531981,1.177000
-0.176711,-0.531078,1.175000
-0.173209,-0.530174,1.173000
-0.170008,-0.530174,1.173000
-0.166949,-0.530626,1.174000
-0.163884,-0.531078,1.175000
-0.160678,-0.531078,1.175000
-0.157203,-0.530174,1.173000
-0.154133,-0.530626,1.174000
-0.150801,-0.530174,1.173000
-0.147977,-0.531529,1.176000
-0.144767,-0.531529,1.176000
-0.141558,-0.531529,1.176000
-0.138231,-0.531078,1.175000
-0.134795,-0.530174,1.173000
-0.131369,-0.529270,1.171000
-0.128064,-0.528818,1.170000
-0.124871,-0.528818,1.170000
-0.121886,-0.529722,1.172000
-0.118586,-0.529270,1.171000
-0.115390,-0.529270,1.171000
-0.111907,-0.527914,1.168000
-0.108626,-0.527462,1.167000
-0.105441,-0.527462,1.167000
-0.102344,-0.527914,1.168000
-0.099157,-0.527914,1.168000
-0.095969,-0.527914,1.168000
-0.092781,-0.527914,1.168000
-0.089594,-0.527914,1.168000
-0.086480,-0.528366,1.169000
-0.083361,-0.528818,1.170000
-0.080305,-0.529722,1.172000
-0.077238,-0.530626,1.174000
-0.074160,-0.531529,1.176000
-0.071132,-0.532885,1.179000
-0.068087,-0.534241,1.182000
-0.064971,-0.535145,1.184000
-0.061949,-0.536953,1.188000
-0.059151,-0.541021,1.197000
-0.057238,-0.554129,1.226000
-0.258205,-0.537305,1.196000
-0.254302,-0.535957,1.193000
-0.250625,-0.535059,1.191000
-0.246752,-0.533711,1.188000
-0.242895,-0.532363,1.185000
-0.239256,-0.531465,1.183000
-0.235629,-0.530566,1.181000
-0.232209,-0.530117,1.180000
-0.228794,-0.529668,1.179000
-0.225577,-0.529668,1.179000
-0.222171,-0.529219,1.178000
-0.218770,-0.528769,1.177000
-0.215374,-0.528320,1.176000
-0.212526,-0.529219,1.178000
-0.209489,-0.529668,1.179000
-0.206271,-0.529668,1.179000
-0.202881,-0.529219,1.178000
-0.199666,-0.529219,1.178000
-0.196452,-0.529219,1.178000
-0.193073,-0.528769,1.177000
-0.189699,-0.528320,1.176000
-0.186648,-0.528769,1.177000
-0.183592,-0.529219,1.178000
-0.180377,-0.529219,1.178000
-0.177012,-0.528769,1.177000
-0.173505,-0.527871,1.175000
-0.170153,-0.527422,1.174000
-0.167091,-0.527871,1.175000
-0.164024,-0.528320,1.176000
-0.160815,-0.528320,1.176000
-0.157471,-0.527871,1.175000
-0.154264,-0.527871,1.175000
-0.151186,-0.528320,1.176000
-0.148229,-0.529219,1.178000
-0.145014,-0.529219,1.178000
-0.141678,-0.528769,1.177000
-0.138466,-0.528769,1.177000
-0.135024,-0.527871,1.175000
-0.131705,-0.527422,1.174000
-0.128392,-0.526972,1.173000
-0.125191,-0.526972,1.173000
-0.122094,-0.527422,1.174000
-0.118788,-0.526972,1.173000
-0.115390,-0.526074,1.171000
-0.112099,-0.525625,1.170000
-0.108719,-0.524726,1.168000
-0.105622,-0.525175,1.169000
-0.102432,-0.525175,1.169000
-0.099326,-0.525625,1.170000
-0.096051,-0.525175,1.169000
-0.092940,-0.525625,1.170000
-0.089671,-0.525175,1.169000
-0.086554,-0.525625,1.170000
-0.083432,-0.526074,1.171000
-0.080442,-0.527422,1.174000
-0.077370,-0.528320,1.176000
-0.074287,-0.529219,1.178000
-0.071192,-0.530117,1.180000
-0.068087,-0.531016,1.182000
-0.064916,-0.531465,1.183000
-0.061740,-0.531914,1.184000
-0.058756,-0.534160,1.189000
-0.056678,-0.545392,1.214000
-0.055387,-0.566057,1.260000
-0.276931,-0.545204,1.221000
-0.268893,-0.535827,1.200000
-0.264069,-0.532702,1.193000
-0.259939,-0.530915,1.189000
-0.256046,-0.529576,1.186000
-0.252596,-0.529129,1.185000
-0.248942,-0.528236,1.183000
-0.245505,-0.527790,1.182000
-0.241870,-0.526897,1.180000
-0.238245,-0.526004,1.178000
-0.234830,-0.525557,1.177000
-0.231618,-0.525557,1.177000
-0.228600,-0.526004,1.178000
-0.225194,-0.525557,1.177000
-0.221982,-0.525557,1.177000
-0.218398,-0.524664,1.175000
-0.215008,-0.524218,1.174000
-0.211804,-0.524218,1.174000
-0.208600,-0.524218,1.174000
-0.205571,-0.524664,1.175000
-0.202365,-0.524664,1.175000
-0.199158,-0.524664,1.175000
-0.195951,-0.524664,1.175000
-0.192581,-0.524218,1.174000
-0.189215,-0.523771,1.173000
-0.186014,-0.523771,1.173000
-0.182969,-0.524218,1.174000
-0.180071,-0.525111,1.176000
-0.176711,-0.524664,1.175000
-0.173357,-0.524218,1.174000
-0.170153,-0.524218,1.174000
-0.167233,-0.525111,1.176000
-0.163884,-0.524664,1.175000
-0.160541,-0.524218,1.174000
-0.157069,-0.523325,1.172000
-0.154002,-0.523771,1.173000
-0.151058,-0.524664,1.175000
-0.148103,-0.525557,1.177000
-0.144767,-0.525111,1.176000
-0.141438,-0.524664,1.175000
-0.138113,-0.524218,1.174000
-0.135139,-0.525111,1.176000
-0.131593,-0.523771,1.173000
-0.128392,-0.523771,1.173000
-0.124871,-0.522432,1.170000
-0.121782,-0.522878,1.171000
-0.118586,-0.522878,1.171000
-0.115489,-0.523325,1.172000
-0.112099,-0.522432,1.170000
-0.108905,-0.522432,1.170000
-0.105622,-0.521985,1.169000
-0.102344,-0.521538,1.168000
-0.099157,-0.521538,1.168000
-0.095969,-0.521538,1.168000
-0.092781,-0.521538,1.168000
-0.089594,-0.521538,1.168000
-0.086406,-0.521538,1.168000
-0.083361,-0.522432,1.170000
-0.080305,-0.523325,1.172000
-0.077304,-0.524664,1.175000
-0.074224,-0.525557,1.177000
-0.071192,-0.526897,1.180000
-0.067972,-0.526897,1.180000
-0.064807,-0.527343,1.181000
-0.061531,-0.526897,1.180000
-0.058509,-0.528683,1.184000
-0.056165,-0.537167,1.203000
-0.054684,-0.555474,1.244000
-0.284813,-0.537878,1.212000
-0.278718,-0.532552,1.200000
-0.274296,-0.530333,1.195000
-0.269674,-0.527671,1.189000
-0.266205,-0.527227,1.188000
-0.262298,-0.525895,1.185000
-0.259064,-0.525895,1.185000
-0.255399,-0.525008,1.183000
-0.252170,-0.525008,1.183000
-0.248521,-0.524120,1.181000
-0.245298,-0.524120,1.181000
-0.242075,-0.524120,1.181000
-0.238649,-0.523676,1.180000
-0.235229,-0.523233,1.179000
-0.232012,-0.523233,1.179000
-0.228794,-0.523233,1.179000
-0.225577,-0.523233,1.179000
-0.222171,-0.522789,1.178000
-0.218584,-0.521901,1.176000
-0.215191,-0.521457,1.175000
-0.212165,-0.521901,1.176000
-0.208956,-0.521901,1.176000
-0.205921,-0.522345,1.177000
-0.202537,-0.521901,1.176000
-0.199327,-0.521901,1.176000
-0.196118,-0.521901,1.176000
-0.192745,-0.521457,1.175000
-0.189377,-0.521014,1.174000
-0.186173,-0.521014,1.174000
-0.182969,-0.521014,1.174000
-0.179918,-0.521457,1.175000
-0.176711,-0.521457,1.175000
-0.173652,-0.521901,1.176000
-0.170443,-0.521901,1.176000
-0.167376,-0.522345,1.177000
-0.164024,-0.521901,1.176000
-0.160678,-0.521457,1.175000
-0.157471,-0.521457,1.175000
-0.154264,-0.521457,1.175000
-0.151186,-0.521901,1.176000
-0.148103,-0.522345,1.177000
-0.144891,-0.522345,1.177000
-0.141558,-0.521901,1.176000
-0.138584,-0.522789,1.178000
-0.135369,-0.522789,1.178000
-0.131930,-0.521901,1.176000
-0.128611,-0.521457,1.175000
-0.125191,-0.520570,1.173000
-0.121990,-0.520570,1.173000
-0.118687,-0.520126,1.172000
-0.115489,-0.520126,1.172000
-0.112290,-0.520126,1.172000
-0.109092,-0.520126,1.172000
-0.105893,-0.520126,1.172000
-0.102607,-0.519682,1.171000
-0.099326,-0.519239,1.170000
-0.096133,-0.519239,1.170000
-0.092940,-0.519239,1.170000
-0.089747,-0.519239,1.170000
-0.086628,-0.519682,1.171000
-0.083432,-0.519682,1.171000
-0.080374,-0.520570,1.173000
-0.077370,-0.521901,1.176000
-0.074350,-0.523233,1.179000
-0.071192,-0.523676,1.180000
-0.068030,-0.524120,1.181000
-0.064807,-0.524120,1.181000
-0.061636,-0.524564,1.182000
-0.058608,-0.526339,1.186000
-0.056025,-0.532552,1.200000
-0.054464,-0.549860,1.239000
-0.295466,-0.535893,1.215000
-0.287581,-0.527513,1.196000
-0.283842,-0.526631,1.194000
-0.279878,-0.525308,1.191000
-0.275931,-0.523985,1.188000
-0.272230,-0.523103,1.186000
-0.268086,-0.521338,1.182000
-0.264636,-0.520897,1.181000
-0.260970,-0.520015,1.179000
-0.257971,-0.520456,1.180000
-0.254535,-0.520015,1.179000
-0.251317,-0.520015,1.179000
-0.247889,-0.519574,1.178000
-0.244882,-0.520015,1.179000
-0.241665,-0.520015,1.179000
-0.238447,-0.520015,1.179000
-0.235030,-0.519574,1.178000
-0.231618,-0.519133,1.177000
-0.228406,-0.519133,1.177000
-0.225003,-0.518692,1.176000
-0.221793,-0.518692,1.176000
-0.218398,-0.518251,1.175000
-0.215008,-0.517810,1.174000
-0.211624,-0.517369,1.173000
-0.208423,-0.517369,1.173000
-0.205221,-0.517369,1.173000
-0.202020,-0.517369,1.173000
-0.198819,-0.517369,1.173000
-0.195618,-0.517369,1.173000
-0.192252,-0.516928,1.172000
-0.189054,-0.516928,1.172000
-0.185855,-0.516928,1.172000
-0.182813,-0.517369,1.173000
-0.179765,-0.517810,1.174000
-0.176410,-0.517369,1.173000
-0.173505,-0.518251,1.175000
-0.170298,-0.518251,1.175000
-0.167091,-0.518251,1.175000
-0.163745,-0.517810,1.174000
-0.160541,-0.517810,1.174000
-0.157337,-0.517810,1.174000
-0.154133,-0.517810,1.174000
-0.150929,-0.517810,1.174000
-0.147599,-0.517369,1.173000
-0.144521,-0.517810,1.174000
-0.141317,-0.517810,1.174000
-0.138584,-0.519574,1.178000
-0.135254,-0.519133,1.177000
-0.131705,-0.517810,1.174000
-0.128392,-0.517369,1.173000
-0.124977,-0.516487,1.171000
-0.121782,-0.516487,1.171000
-0.118586,-0.516487,1.171000
-0.115390,-0.516487,1.171000
-0.112194,-0.516487,1.171000
-0.108905,-0.516045,1.170000
-0.105712,-0.516045,1.170000
-0.102432,-0.515604,1.169000
-0.099157,-0.515163,1.168000
-0.095969,-0.515163,1.168000
-0.092702,-0.514722,1.167000
-0.089594,-0.515163,1.168000
-0.086406,-0.515163,1.168000
-0.083219,-0.515163,1.168000
-0.080031,-0.515163,1.168000
-0.077107,-0.516928,1.172000
-0.074160,-0.518692,1.176000
-0.071192,-0.520456,1.180000
-0.068030,-0.520897,1.181000
-0.064971,-0.522220,1.184000
-0.061896,-0.523544,1.187000
-0.058904,-0.525749,1.192000
-0.056351,-0.532365,1.207000
-0.054640,-0.548243,1.243000
-0.318676,-0.532578,1.215000
-0.312765,-0.528194,1.205000
-0.308963,-0.527318,1.203000
-0.307967,-0.531263,1.212000
-0.294847,-0.525564,1.199000
-0.288900,-0.520742,1.188000
-0.285898,-0.521181,1.189000
-0.281940,-0.519866,1.186000
-0.278703,-0.519866,1.186000
-0.274770,-0.518551,1.183000
-0.271541,-0.518551,1.183000
-0.267859,-0.517674,1.181000
-0.264412,-0.517236,1.180000
-0.261192,-0.517236,1.180000
-0.257971,-0.517236,1.180000
-0.254751,-0.517236,1.180000
-0.251531,-0.517236,1.180000
-0.248100,-0.516797,1.179000
-0.245090,-0.517236,1.180000
-0.241870,-0.517236,1.180000
-0.238649,-0.517236,1.180000
-0.235030,-0.516359,1.178000
-0.231618,-0.515921,1.177000
-0.228212,-0.515482,1.176000
-0.225194,-0.515921,1.177000
-0.222171,-0.516359,1.178000
-0.219142,-0.516797,1.179000
-0.215558,-0.515921,1.177000
-0.212165,-0.515482,1.176000
-0.208778,-0.515044,1.175000
-0.205746,-0.515482,1.176000
-0.202709,-0.515921,1.177000
-0.199497,-0.515921,1.177000
-0.196285,-0.515921,1.177000
-0.192745,-0.515044,1.175000
-0.189377,-0.514606,1.174000
-0.186331,-0.515044,1.175000
-0.183125,-0.515044,1.175000
-0.179765,-0.514606,1.174000
-0.176711,-0.515044,1.175000
-0.173652,-0.515482,1.176000
-0.170443,-0.515482,1.176000
-0.167091,-0.515044,1.175000
-0.163745,-0.514606,1.174000
-0.160678,-0.515044,1.175000
-0.157605,-0.515482,1.176000
-0.154396,-0.515482,1.176000
-0.151315,-0.515921,1.177000
-0.147977,-0.515482,1.176000
-0.144891,-0.515921,1.177000
-0.141799,-0.516359,1.178000
-0.138819,-0.517236,1.180000
-0.135369,-0.516359,1.178000
-0.132042,-0.515921,1.177000
-0.128611,-0.515044,1.175000
-0.125191,-0.514167,1.173000
-0.121886,-0.513729,1.172000
-0.118687,-0.513729,1.172000
-0.115489,-0.513729,1.172000
-0.112194,-0.513291,1.171000
-0.108905,-0.512852,1.170000
-0.105803,-0.513291,1.171000
-0.102432,-0.512414,1.169000
-0.099326,-0.512852,1.170000
-0.096133,-0.512852,1.170000
-0.092940,-0.512852,1.170000
-0.089671,-0.512414,1.169000
-0.086480,-0.512414,1.169000
-0.083219,-0.511976,1.168000
-0.080100,-0.512414,1.169000
-0.077173,-0.514167,1.173000
-0.074287,-0.516359,1.178000
-0.071373,-0.518551,1.183000
-0.068491,-0.521181,1.189000
-0.065685,-0.524687,1.197000
-0.062991,-0.529509,1.208000
-0.059991,-0.532139,1.214000
-0.057378,-0.538714,1.229000
-0.055079,-0.549234,1.253000
-0.318282,-0.523163,1.201000
-0.313431,-0.520550,1.195000
-0.309391,-0.519243,1.192000
-0.306138,-0.519243,1.192000
-0.304917,-0.522728,1.200000
-0.305413,-0.529262,1.215000
-0.302843,-0.530568,1.218000
-0.292388,-0.517936,1.189000
-0.287684,-0.515322,1.183000
-0.284215,-0.514887,1.182000
-0.280989,-0.514887,1.182000
-0.277293,-0.514015,1.180000
-0.273841,-0.513580,1.179000
-0.270394,-0.513144,1.178000
-0.267179,-0.513144,1.178000
-0.263964,-0.513144,1.178000
-0.260528,-0.512709,1.177000
-0.257097,-0.512273,1.176000
-0.254103,-0.512709,1.177000
-0.250891,-0.512709,1.177000
-0.247679,-0.512709,1.177000
-0.244467,-0.512709,1.177000
-0.241255,-0.512709,1.177000
-0.238043,-0.512709,1.177000
-0.234431,-0.511837,1.175000
-0.231225,-0.511837,1.175000
-0.227824,-0.511402,1.174000
-0.224811,-0.511837,1.175000
-0.221793,-0.512273,1.176000
-0.218770,-0.512709,1.177000
-0.215374,-0.512273,1.176000
-0.211804,-0.511402,1.174000
-0.208245,-0.510531,1.172000
-0.205221,-0.510966,1.173000
-0.202365,-0.511837,1.175000
-0.199158,-0.511837,1.175000
-0.195951,-0.511837,1.175000
-0.192581,-0.511402,1.174000
-0.189215,-0.510966,1.173000
-0.186173,-0.511402,1.174000
-0.182813,-0.510966,1.173000
-0.179612,-0.510966,1.173000
-0.176561,-0.511402,1.174000
-0.173652,-0.512273,1.176000
-0.170298,-0.511837,1.175000
-0.167091,-0.511837,1.175000
-0.163606,-0.510966,1.173000
-0.160404,-0.510966,1.173000
-0.157203,-0.510966,1.173000
-0.154133,-0.511402,1.174000
-0.150929,-0.511402,1.174000
-0.147725,-0.511402,1.174000
-0.144521,-0.511402,1.174000
-0.141438,-0.511837,1.175000
-0.138466,-0.512709,1.177000
-0.135139,-0.512273,1.176000
-0.131818,-0.511837,1.175000
-0.128502,-0.511402,1.174000
-0.125084,-0.510531,1.172000
-0.121886,-0.510531,1.172000
-0.118586,-0.510095,1.171000
-0.115390,-0.510095,1.171000
-0.112003,-0.509224,1.169000
-0.108812,-0.509224,1.169000
-0.105532,-0.508788,1.168000
-0.102344,-0.508788,1.168000
-0.099242,-0.509224,1.169000
-0.096133,-0.509659,1.170000
-0.092940,-0.509659,1.170000
-0.089747,-0.509659,1.170000
-0.086480,-0.509224,1.169000
-0.083290,-0.509224,1.169000
-0.080168,-0.509659,1.170000
-0.077238,-0.511402,1.174000
-0.074539,-0.514887,1.182000
-0.072158,-0.520985,1.196000
-0.070219,-0.531004,1.219000
-0.068319,-0.542330,1.245000
-0.064973,-0.542765,1.246000
-0.060930,-0.537103,1.233000
-0.057892,-0.540152,1.240000
-0.056178,-0.556705,1.278000
-0.319150,-0.515990,1.192000
-0.314307,-0.513392,1.186000
-0.310808,-0.512960,1.185000
-0.307574,-0.512960,1.185000
-0.304854,-0.513825,1.187000
-0.303393,-0.516855,1.194000
-0.303151,-0.522050,1.206000
-0.301849,-0.525513,1.214000
-0.292634,-0.515124,1.190000
-0.287684,-0.512094,1.183000
-0.284215,-0.511661,1.182000
-0.280276,-0.510362,1.179000
-0.277058,-0.510362,1.179000
-0.273841,-0.510362,1.179000
-0.270623,-0.510362,1.179000
-0.267405,-0.510362,1.179000
-0.264188,-0.510362,1.179000
-0.260749,-0.509929,1.178000
-0.257534,-0.509929,1.178000
-0.254319,-0.509929,1.178000
-0.251104,-0.509929,1.178000
-0.247889,-0.509929,1.178000
-0.244675,-0.509929,1.178000
-0.241665,-0.510362,1.179000
-0.238245,-0.509929,1.178000
-0.234830,-0.509497,1.177000
-0.231422,-0.509064,1.176000
-0.228212,-0.509064,1.176000
-0.225194,-0.509497,1.177000
-0.221982,-0.509497,1.177000
-0.218956,-0.509929,1.178000
-0.215558,-0.509497,1.177000
-0.212165,-0.509064,1.176000
-0.208778,-0.508631,1.175000
-0.205921,-0.509497,1.177000
-0.202881,-0.509929,1.178000
-0.199666,-0.509929,1.178000
-0.196452,-0.509929,1.178000
-0.193073,-0.509497,1.177000
-0.189699,-0.509064,1.176000
-0.186648,-0.509497,1.177000
-0.183280,-0.509064,1.176000
-0.179918,-0.508631,1.175000
-0.176711,-0.508631,1.175000
-0.173652,-0.509064,1.176000
-0.170588,-0.509497,1.177000
-0.167376,-0.509497,1.177000
-0.163884,-0.508631,1.175000
-0.160678,-0.508631,1.175000
-0.157471,-0.508631,1.175000
-0.154396,-0.509064,1.176000
-0.151315,-0.509497,1.177000
-0.148103,-0.509497,1.177000
-0.145014,-0.509929,1.178000
-0.141919,-0.510362,1.179000
-0.138819,-0.510795,1.180000
-0.135484,-0.510362,1.179000
-0.132154,-0.509929,1.178000
-0.128830,-0.509497,1.177000
-0.125404,-0.508631,1.175000
-0.122198,-0.508631,1.175000
-0.118890,-0.508198,1.174000
-0.115587,-0.507765,1.173000
-0.112194,-0.506899,1.171000
-0.108999,-0.506899,1.171000
-0.105803,-0.506899,1.171000
-0.102607,-0.506899,1.171000
-0.099411,-0.506899,1.171000
-0.096462,-0.508198,1.174000
-0.093576,-0.509929,1.178000
-0.090438,-0.510362,1.179000
-0.087146,-0.509929,1.178000
-0.083789,-0.509064,1.176000
-0.080785,-0.510362,1.179000
-0.078291,-0.515124,1.190000
-0.076620,-0.525946,1.215000
-0.075416,-0.541097,1.250000
-0.074424,-0.559277,1.292000
-0.070733,-0.557979,1.289000
-0.064973,-0.539365,1.246000
-0.061128,-0.535469,1.237000
-0.058079,-0.538499,1.244000
-0.056398,-0.555381,1.283000
-0.324296,-0.515748,1.199000
-0.317276,-0.509726,1.185000
-0.312717,-0.507575,1.180000
-0.309234,-0.507145,1.179000
-0.306536,-0.508005,1.181000
-0.303313,-0.508005,1.181000
-0.300852,-0.509295,1.184000
-0.299129,-0.511876,1.190000
-0.300108,-0.519189,1.207000
-0.292142,-0.511016,1.188000
-0.287441,-0.508435,1.182000
-0.283734,-0.507575,1.180000
-0.280038,-0.506715,1.178000
-0.276353,-0.505854,1.176000
-0.273376,-0.506284,1.177000
-0.270394,-0.506715,1.178000
-0.267405,-0.507145,1.179000
-0.263740,-0.506284,1.177000
-0.260528,-0.506284,1.177000
-0.257097,-0.505854,1.176000
-0.253887,-0.505854,1.176000
-0.250678,-0.505854,1.176000
-0.247469,-0.505854,1.176000
-0.244051,-0.505424,1.175000
-0.240845,-0.505424,1.175000
-0.237638,-0.505424,1.175000
-0.234431,-0.505424,1.175000
-0.231225,-0.505424,1.175000
-0.228212,-0.505854,1.176000
-0.224811,-0.505424,1.175000
-0.221605,-0.505424,1.175000
-0.218212,-0.504994,1.174000
-0.215008,-0.504994,1.174000
-0.211624,-0.504564,1.173000
-0.208423,-0.504564,1.173000
-0.205221,-0.504564,1.173000
-0.202192,-0.504994,1.174000
-0.198988,-0.504994,1.174000
-0.195784,-0.504994,1.174000
-0.192581,-0.504994,1.174000
-0.189215,-0.504564,1.173000
-0.186014,-0.504564,1.173000
-0.182969,-0.504994,1.174000
-0.179918,-0.505424,1.175000
-0.176561,-0.504994,1.174000
-0.173357,-0.504994,1.174000
-0.170008,-0.504564,1.173000
-0.166949,-0.504994,1.174000
-0.163466,-0.504134,1.172000
-0.160404,-0.504564,1.173000
-0.157337,-0.504994,1.174000
-0.154264,-0.505424,1.175000
-0.151058,-0.505424,1.175000
-0.147851,-0.505424,1.175000
-0.144521,-0.504994,1.174000
-0.141558,-0.505854,1.176000
-0.138584,-0.506715,1.178000
-0.135369,-0.506715,1.178000
-0.131818,-0.505424,1.175000
-0.128502,-0.504994,1.174000
-0.125191,-0.504564,1.173000
-0.121990,-0.504564,1.173000
-0.118687,-0.504134,1.172000
-0.115489,-0.504134,1.172000
-0.112099,-0.503273,1.170000
-0.108905,-0.503273,1.170000
-0.105622,-0.502843,1.169000
-0.102519,-0.503273,1.170000
-0.099326,-0.503273,1.170000
-0.096462,-0.504994,1.174000
-0.093337,-0.505424,1.175000
-0.090284,-0.506284,1.177000
-0.087072,-0.506284,1.177000
-0.084572,-0.510586,1.187000
-0.081881,-0.514027,1.195000
-0.080396,-0.525641,1.222000
-0.079205,-0.540266,1.256000
-0.077588,-0.553171,1.286000
-0.074769,-0.558332,1.298000
-0.069745,-0.546718,1.271000
-0.064712,-0.533814,1.241000
-0.061227,-0.532954,1.239000
-0.058452,-0.538545,1.252000
-0.330574,-0.517177,1.210000
-0.322674,-0.509911,1.193000
-0.317811,-0.507346,1.187000
-0.313512,-0.505637,1.183000
-0.309759,-0.504782,1.181000
-0.306536,-0.504782,1.181000
-0.303313,-0.504782,1.181000
-0.300598,-0.505637,1.183000
-0.297872,-0.506492,1.185000
-0.296876,-0.510338,1.194000
-0.292880,-0.509056,1.191000
-0.288656,-0.507346,1.187000
-0.285177,-0.506919,1.186000
-0.280751,-0.504782,1.181000
-0.277058,-0.503927,1.179000
-0.273841,-0.503927,1.179000
-0.270623,-0.503927,1.179000
-0.267405,-0.503927,1.179000
-0.263740,-0.503072,1.177000
-0.260528,-0.503072,1.177000
-0.257097,-0.502645,1.176000
-0.254103,-0.503072,1.177000
-0.250891,-0.503072,1.177000
-0.247889,-0.503500,1.178000
-0.244675,-0.503500,1.178000
-0.241460,-0.503500,1.178000
-0.238245,-0.503500,1.178000
-0.234830,-0.503072,1.177000
-0.231618,-0.503072,1.177000
-0.228406,-0.503072,1.177000
-0.225003,-0.502645,1.176000
-0.221793,-0.502645,1.176000
-0.218584,-0.502645,1.176000
-0.215374,-0.502645,1.176000
-0.212165,-0.502645,1.176000
-0.208956,-0.502645,1.176000
-0.205571,-0.502217,1.175000
-0.202537,-0.502645,1.176000
-0.199497,-0.503072,1.177000
-0.196452,-0.503500,1.178000
-0.193237,-0.503500,1.178000
-0.189861,-0.503072,1.177000
-0.186490,-0.502645,1.176000
-0.183436,-0.503072,1.177000
-0.180224,-0.503072,1.177000
-0.177162,-0.503500,1.178000
-0.173800,-0.503072,1.177000
-0.170588,-0.503072,1.177000
-0.167376,-0.503072,1.177000
-0.164163,-0.503072,1.177000
-0.160951,-0.503072,1.177000
-0.157739,-0.503072,1.177000
-0.154658,-0.503500,1.178000
-0.151443,-0.503500,1.178000
-0.148229,-0.503500,1.178000
-0.144891,-0.503072,1.177000
-0.141799,-0.503500,1.178000
-0.138702,-0.503927,1.179000
-0.135599,-0.504354,1.180000
-0.132042,-0.503072,1.177000
-0.128611,-0.502217,1.175000
-0.125404,-0.502217,1.175000
-0.122094,-0.501790,1.174000
-0.118991,-0.502217,1.175000
-0.115686,-0.501790,1.174000
-0.112386,-0.501363,1.173000
-0.109092,-0.500935,1.172000
-0.105893,-0.500935,1.172000
-0.102782,-0.501363,1.173000
-0.099666,-0.501790,1.174000
-0.096873,-0.503927,1.179000
-0.093496,-0.503072,1.177000
-0.090361,-0.503500,1.178000
-0.087220,-0.503927,1.179000
-0.086354,-0.518032,1.212000
-0.083800,-0.522734,1.223000
-0.082173,-0.533846,1.249000
-0.080404,-0.544959,1.275000
-0.077648,-0.550088,1.287000
-0.073502,-0.545387,1.276000
-0.068154,-0.530854,1.242000
-0.064556,-0.529145,1.238000
-0.061573,-0.532564,1.246000
-0.059153,-0.541540,1.267000
-0.330841,-0.509203,1.199000
-0.324837,-0.504956,1.189000
-0.320780,-0.503682,1.186000
-0.316740,-0.502408,1.183000
-0.313512,-0.502408,1.183000
-0.309759,-0.501559,1.181000
-0.306276,-0.501134,1.180000
-0.302285,-0.499860,1.177000
-0.299581,-0.500709,1.179000
-0.296615,-0.501134,1.180000
-0.294887,-0.503682,1.186000
-0.293863,-0.507504,1.195000
-0.292061,-0.510053,1.201000
-0.287100,-0.507080,1.194000
-0.281702,-0.503258,1.185000
-0.277293,-0.501134,1.180000
-0.273841,-0.500709,1.179000
-0.270394,-0.500285,1.178000
-0.267179,-0.500285,1.178000
-0.263292,-0.499011,1.175000
-0.260085,-0.499011,1.175000
-0.256660,-0.498586,1.174000
-0.253887,-0.499435,1.176000
-0.250678,-0.499435,1.176000
-0.247679,-0.499860,1.177000
-0.244051,-0.499011,1.175000
-0.240845,-0.499011,1.175000
-0.237638,-0.499011,1.175000
-0.234431,-0.499011,1.175000
-0.231225,-0.499011,1.175000
-0.227824,-0.498586,1.174000
-0.224620,-0.498586,1.174000
-0.221228,-0.498161,1.173000
-0.218026,-0.498161,1.173000
-0.215008,-0.498586,1.174000
-0.211985,-0.499011,1.175000
-0.208600,-0.498586,1.174000
-0.205221,-0.498161,1.173000
-0.202365,-0.499011,1.175000
-0.199158,-0.499011,1.175000
-0.196118,-0.499435,1.176000
-0.192909,-0.499435,1.176000
-0.189377,-0.498586,1.174000
-0.186173,-0.498586,1.174000
-0.183125,-0.499011,1.175000
-0.180071,-0.499435,1.176000
-0.176862,-0.499435,1.176000
-0.173652,-0.499435,1.176000
-0.170443,-0.499435,1.176000
-0.167376,-0.499860,1.177000
-0.164024,-0.499435,1.176000
-0.160951,-0.499860,1.177000
-0.157605,-0.499435,1.176000
-0.154527,-0.499860,1.177000
-0.151315,-0.499860,1.177000
-0.147977,-0.499435,1.176000
-0.144521,-0.498586,1.174000
-0.141558,-0.499435,1.176000
-0.138466,-0.499860,1.177000
-0.135599,-0.501134,1.180000
-0.132266,-0.500709,1.179000
-0.128830,-0.499860,1.177000
-0.125511,-0.499435,1.176000
-0.122094,-0.498586,1.174000
-0.118890,-0.498586,1.174000
-0.115587,-0.498161,1.173000
-0.112290,-0.497737,1.172000
-0.108999,-0.497312,1.171000
-0.105893,-0.497737,1.172000
-0.102870,-0.498586,1.174000
-0.099921,-0.499860,1.177000
-0.097037,-0.501559,1.181000
-0.093258,-0.498586,1.174000
-0.090131,-0.499011,1.175000
-0.086924,-0.499011,1.175000
-0.087707,-0.522793,1.231000
-0.084896,-0.526191,1.239000
-0.082436,-0.532136,1.253000
-0.079836,-0.537657,1.266000
-0.076864,-0.541055,1.274000
-0.071255,-0.525341,1.237000
-0.067605,-0.523218,1.232000
-0.064556,-0.525766,1.238000
-0.062166,-0.534260,1.258000
-0.323667,-0.494960,1.173000
-0.327295,-0.505509,1.198000
-0.321051,-0.500868,1.187000
-0.316205,-0.498336,1.181000
-0.312982,-0.498336,1.181000
-0.309496,-0.497914,1.180000
-0.306017,-0.497492,1.179000
-0.302799,-0.497492,1.179000
-0.300344,-0.498758,1.182000
-0.298123,-0.500446,1.186000
-0.297124,-0.504243,1.195000
-0.297306,-0.510151,1.209000
-0.292304,-0.507197,1.202000
-0.286860,-0.503399,1.193000
-0.282178,-0.500868,1.187000
-0.277763,-0.498758,1.182000
-0.274305,-0.498336,1.181000
-0.270623,-0.497492,1.179000
-0.267179,-0.497070,1.178000
-0.263516,-0.496226,1.176000
-0.260306,-0.496226,1.176000
-0.257315,-0.496648,1.177000
-0.254535,-0.497492,1.179000
-0.251104,-0.497070,1.178000
-0.247889,-0.497070,1.178000
-0.244675,-0.497070,1.178000
-0.241665,-0.497492,1.179000
-0.238649,-0.497914,1.180000
-0.235030,-0.497070,1.178000
-0.231815,-0.497070,1.178000
-0.228600,-0.497070,1.178000
-0.225194,-0.496648,1.177000
-0.221793,-0.496226,1.176000
-0.218584,-0.496226,1.176000
-0.215374,-0.496226,1.176000
-0.212526,-0.497070,1.178000
-0.209133,-0.496648,1.177000
-0.206096,-0.497070,1.178000
-0.203054,-0.497492,1.179000
-0.200005,-0.497914,1.180000
-0.196952,-0.498336,1.181000
-0.193729,-0.498336,1.181000
-0.190183,-0.497492,1.179000
-0.186966,-0.497492,1.179000
-0.183904,-0.497914,1.180000
-0.180837,-0.498336,1.181000
-0.177463,-0.497914,1.180000
-0.174243,-0.497914,1.180000
-0.171167,-0.498336,1.181000
-0.168229,-0.499180,1.183000
-0.164861,-0.498758,1.182000
-0.161498,-0.498336,1.181000
-0.158007,-0.497492,1.179000
-0.154921,-0.497914,1.180000
-0.151701,-0.497914,1.180000
-0.148480,-0.497914,1.180000
-0.145137,-0.497492,1.179000
-0.142040,-0.497914,1.180000
-0.138937,-0.498336,1.181000
-0.136173,-0.500024,1.185000
-0.133052,-0.500446,1.186000
-0.130034,-0.501290,1.188000
-0.126685,-0.500868,1.187000
-0.122822,-0.498336,1.181000
-0.119396,-0.497492,1.179000
-0.115883,-0.496226,1.176000
-0.112578,-0.495804,1.175000
-0.109371,-0.495804,1.175000
-0.106616,-0.497914,1.180000
-0.103921,-0.500446,1.186000
-0.101279,-0.503399,1.193000
-0.098516,-0.505931,1.199000
-0.094767,-0.503399,1.193000
-0.091588,-0.503821,1.194000
-0.088330,-0.503821,1.194000
-0.086995,-0.515214,1.221000
-0.084965,-0.523232,1.240000
-0.081580,-0.523232,1.240000
-0.078196,-0.523232,1.240000
-0.074209,-0.519012,1.230000
-0.070795,-0.518590,1.229000
-0.067550,-0.519434,1.231000
-0.064921,-0.525341,1.245000
-0.062660,-0.535046,1.268000
-0.323943,-0.492178,1.174000
-0.326476,-0.500982,1.195000
-0.321051,-0.497628,1.187000
-0.315402,-0.493855,1.178000
-0.311922,-0.493436,1.177000
-0.308710,-0.493436,1.177000
-0.305757,-0.493855,1.178000
-0.302285,-0.493436,1.177000
-0.300090,-0.495113,1.181000
-0.297872,-0.496790,1.185000
-0.297622,-0.501820,1.197000
-0.295339,-0.503497,1.201000
-0.289872,-0.499724,1.192000
-0.285417,-0.497628,1.187000
-0.282415,-0.498047,1.188000
-0.277998,-0.495951,1.183000
-0.274305,-0.495113,1.181000
-0.270623,-0.494274,1.179000
-0.267179,-0.493855,1.178000
-0.263740,-0.493436,1.177000
-0.260749,-0.493855,1.178000
-0.257534,-0.493855,1.178000
-0.254535,-0.494274,1.179000
-0.251104,-0.493855,1.178000
-0.247889,-0.493855,1.178000
-0.244467,-0.493436,1.177000
-0.241255,-0.493436,1.177000
-0.238245,-0.493855,1.178000
-0.234830,-0.493436,1.177000
-0.232012,-0.494274,1.179000
-0.228794,-0.494274,1.179000
-0.225577,-0.494274,1.179000
-0.221793,-0.493017,1.176000
-0.218398,-0.492597,1.175000
-0.215191,-0.492597,1.175000
-0.212345,-0.493436,1.177000
-0.209133,-0.493436,1.177000
-0.206271,-0.494274,1.179000
-0.203226,-0.494693,1.180000
-0.200175,-0.495113,1.181000
-0.196952,-0.495113,1.181000
-0.193729,-0.495113,1.181000
-0.190183,-0.494274,1.179000
-0.187124,-0.494693,1.180000
-0.184060,-0.495113,1.181000
-0.180837,-0.495113,1.181000
-0.177463,-0.494693,1.180000
-0.174243,-0.494693,1.180000
-0.171167,-0.495113,1.181000
-0.168229,-0.495951,1.183000
-0.165000,-0.495951,1.183000
-0.161635,-0.495532,1.182000
-0.158275,-0.495113,1.181000
-0.155183,-0.495532,1.182000
-0.151958,-0.495532,1.182000
-0.148858,-0.495951,1.183000
-0.145383,-0.495113,1.181000
-0.142160,-0.495113,1.181000
-0.138937,-0.495113,1.181000
-0.136173,-0.496790,1.185000
-0.134286,-0.501820,1.197000
-0.130910,-0.501401,1.196000
-0.127432,-0.500563,1.194000
-0.123342,-0.497209,1.186000
-0.119599,-0.495113,1.181000
-0.116080,-0.493855,1.178000
-0.112961,-0.494274,1.179000
-0.110302,-0.496790,1.185000
-0.107881,-0.500563,1.194000
-0.105323,-0.503917,1.202000
-0.102552,-0.506432,1.208000
-0.099502,-0.507690,1.211000
-0.096753,-0.510624,1.218000
-0.093813,-0.512720,1.223000
-0.090771,-0.514397,1.227000
-0.086995,-0.511882,1.221000
-0.083937,-0.513559,1.225000
-0.080659,-0.513978,1.226000
-0.076998,-0.511882,1.221000
-0.073666,-0.511882,1.221000
-0.070679,-0.514397,1.227000
-0.067989,-0.519428,1.239000
-0.065442,-0.526136,1.255000
-0.063352,-0.537455,1.282000
-0.347797,-0.514797,1.236000
-0.341079,-0.509799,1.224000
-0.331393,-0.500220,1.201000
-0.323471,-0.493139,1.184000
-0.322133,-0.496055,1.191000
-0.317008,-0.493139,1.184000
-0.312717,-0.491473,1.180000
-0.309234,-0.491057,1.179000
-0.306017,-0.491057,1.179000
-0.303056,-0.491473,1.180000
-0.300598,-0.492723,1.183000
-0.298123,-0.493972,1.186000
-0.296627,-0.496888,1.193000
-0.293617,-0.497304,1.194000
-0.289629,-0.496055,1.191000
-0.285417,-0.494389,1.187000
-0.282891,-0.495638,1.190000
-0.278703,-0.493972,1.186000
-0.275002,-0.493139,1.184000
-0.271312,-0.492306,1.182000
-0.267859,-0.491890,1.181000
-0.264412,-0.491473,1.180000
-0.261192,-0.491473,1.180000
-0.258409,-0.492306,1.182000
-0.255399,-0.492723,1.183000
-0.251957,-0.492306,1.182000
-0.248521,-0.491890,1.181000
-0.245298,-0.491890,1.181000
-0.242280,-0.492306,1.182000
-0.239256,-0.492723,1.183000
-0.235828,-0.492306,1.182000
-0.232996,-0.493139,1.184000
-0.229959,-0.493556,1.185000
-0.226725,-0.493556,1.185000
-0.222925,-0.492306,1.182000
-0.219699,-0.492306,1.182000
-0.216290,-0.491890,1.181000
-0.213428,-0.492723,1.183000
-0.210377,-0.493139,1.184000
-0.207671,-0.494389,1.187000
-0.204604,-0.494805,1.188000
-0.201531,-0.495222,1.189000
-0.198286,-0.495222,1.189000
-0.195041,-0.495222,1.189000
-0.191635,-0.494805,1.188000
-0.188393,-0.494805,1.188000
-0.185151,-0.494805,1.188000
-0.181755,-0.494389,1.187000
-0.178516,-0.494389,1.187000
-0.175424,-0.494805,1.188000
-0.172327,-0.495222,1.189000
-0.169082,-0.495222,1.189000
-0.165977,-0.495638,1.190000
-0.162592,-0.495222,1.189000
-0.159213,-0.494805,1.188000
-0.155971,-0.494805,1.188000
-0.152858,-0.495222,1.189000
-0.149739,-0.495638,1.190000
-0.146368,-0.495222,1.189000
-0.142882,-0.494389,1.187000
-0.139525,-0.493972,1.186000
-0.136633,-0.495222,1.189000
-0.134734,-0.500220,1.201000
-0.131676,-0.501053,1.203000
-0.128393,-0.501053,1.203000
-0.125110,-0.501053,1.203000
-0.121624,-0.500220,1.201000
-0.118248,-0.499803,1.200000
-0.115356,-0.501469,1.204000
-0.112629,-0.503968,1.210000
-0.110140,-0.507717,1.219000
-0.106813,-0.507717,1.219000
-0.103996,-0.510216,1.225000
-0.100652,-0.510216,1.225000
-0.097309,-0.510216,1.225000
-0.094043,-0.510632,1.226000
-0.091067,-0.512715,1.231000
-0.087636,-0.512298,1.230000
-0.084005,-0.510632,1.226000
-0.080330,-0.508550,1.221000
-0.077124,-0.509383,1.223000
-0.074028,-0.511049,1.227000
-0.071313,-0.515630,1.238000
-0.068593,-0.520628,1.250000
-0.066068,-0.527709,1.267000
-0.351101,-0.506459,1.224000
-0.345487,-0.503149,1.216000
-0.338792,-0.498183,1.204000
-0.336064,-0.499011,1.206000
-0.331945,-0.497770,1.203000
-0.324290,-0.491149,1.187000
-0.322674,-0.493632,1.193000
-0.317811,-0.491149,1.187000
-0.313512,-0.489494,1.183000
-0.309496,-0.488253,1.180000
-0.306276,-0.488253,1.180000
-0.303056,-0.488253,1.180000
-0.300344,-0.489080,1.182000
-0.297369,-0.489494,1.183000
-0.295135,-0.491149,1.187000
-0.291650,-0.490736,1.186000
-0.288413,-0.490736,1.186000
-0.284936,-0.490322,1.185000
-0.282415,-0.491563,1.188000
-0.278233,-0.489908,1.184000
-0.274537,-0.489080,1.182000
-0.271082,-0.488667,1.181000
-0.267859,-0.488667,1.181000
-0.264412,-0.488253,1.180000
-0.261413,-0.488667,1.181000
-0.258190,-0.488667,1.181000
-0.255183,-0.489080,1.182000
-0.251744,-0.488667,1.181000
-0.248731,-0.489080,1.182000
-0.245505,-0.489080,1.182000
-0.242280,-0.489080,1.182000
-0.239054,-0.489080,1.182000
-0.236028,-0.489494,1.183000
-0.232996,-0.489908,1.184000
-0.229959,-0.490322,1.185000
-0.226725,-0.490322,1.185000
-0.223491,-0.490322,1.185000
-0.220257,-0.490322,1.185000
-0.217023,-0.490322,1.185000
-0.213969,-0.490736,1.186000
-0.211266,-0.491977,1.189000
-0.208720,-0.493632,1.193000
-0.205637,-0.494046,1.194000
-0.202378,-0.494046,1.194000
-0.199120,-0.494046,1.194000
-0.195861,-0.494046,1.194000
-0.192603,-0.494046,1.194000
-0.189186,-0.493632,1.193000
-0.185774,-0.493218,1.192000
-0.182215,-0.492391,1.190000
-0.178967,-0.492391,1.190000
-0.176162,-0.493632,1.193000
-0.172907,-0.493632,1.193000
-0.169651,-0.493632,1.193000
-0.166256,-0.493218,1.192000
-0.163139,-0.493632,1.193000
-0.159749,-0.493218,1.192000
-0.156496,-0.493218,1.192000
-0.153500,-0.494046,1.194000
-0.150368,-0.494459,1.195000
-0.146983,-0.494046,1.194000
-0.143364,-0.492804,1.191000
-0.140113,-0.492804,1.191000
-0.137093,-0.493632,1.193000
-0.135183,-0.498597,1.205000
-0.131895,-0.498597,1.205000
-0.128499,-0.498183,1.204000
-0.126358,-0.502735,1.215000
-0.123548,-0.504804,1.220000
-0.119529,-0.501907,1.213000
-0.115835,-0.500252,1.209000
-0.112443,-0.499839,1.208000
-0.109688,-0.502321,1.214000
-0.106550,-0.503149,1.216000
-0.103147,-0.502735,1.215000
-0.099913,-0.503149,1.216000
-0.096594,-0.503149,1.216000
-0.093276,-0.503149,1.216000
-0.089957,-0.503149,1.216000
-0.086710,-0.503563,1.217000
-0.083663,-0.505218,1.221000
-0.080396,-0.505631,1.222000
-0.077440,-0.508114,1.228000
-0.074752,-0.512666,1.239000
-0.072062,-0.517631,1.251000
-0.069361,-0.523010,1.264000
-0.066746,-0.529630,1.280000
-0.353862,-0.502296,1.222000
-0.349666,-0.501063,1.219000
-0.341794,-0.494487,1.203000
-0.334853,-0.489143,1.190000
-0.332162,-0.489965,1.192000
-0.330565,-0.492431,1.198000
-0.326476,-0.491198,1.195000
-0.322403,-0.489965,1.192000
-0.318347,-0.488732,1.189000
-0.313777,-0.486677,1.184000
-0.310021,-0.485855,1.182000
-0.306536,-0.485444,1.181000
-0.303569,-0.485855,1.182000
-0.300344,-0.485855,1.182000
-0.297872,-0.487088,1.185000
-0.294638,-0.487088,1.185000
-0.291896,-0.487910,1.187000
-0.287684,-0.486266,1.183000
-0.285177,-0.487499,1.186000
-0.282891,-0.489143,1.190000
-0.278703,-0.487499,1.186000
-0.275234,-0.487088,1.185000
-0.271771,-0.486677,1.184000
-0.268539,-0.486677,1.184000
-0.265308,-0.486677,1.184000
-0.262077,-0.486677,1.184000
-0.259064,-0.487088,1.185000
-0.256262,-0.487910,1.187000
-0.252810,-0.487499,1.186000
-0.249783,-0.487910,1.187000
-0.246336,-0.487499,1.186000
-0.243304,-0.487910,1.187000
-0.240470,-0.488732,1.189000
-0.237624,-0.489554,1.191000
-0.234373,-0.489554,1.191000
-0.230929,-0.489143,1.190000
-0.227873,-0.489554,1.191000
-0.225000,-0.490376,1.193000
-0.222115,-0.491198,1.195000
-0.218854,-0.491198,1.195000
-0.215954,-0.492020,1.197000
-0.213042,-0.492842,1.199000
-0.210295,-0.494075,1.202000
-0.207015,-0.494075,1.202000
-0.203734,-0.494075,1.202000
-0.200621,-0.494487,1.203000
-0.197338,-0.494487,1.203000
-0.194055,-0.494487,1.203000
-0.190613,-0.494075,1.202000
-0.186865,-0.492842,1.199000
-0.183440,-0.492431,1.198000
-0.180471,-0.493253,1.200000
-0.177491,-0.494075,1.202000
-0.174211,-0.494075,1.202000
-0.170646,-0.493253,1.200000
-0.167232,-0.492842,1.199000
-0.164233,-0.493664,1.201000
-0.161090,-0.494075,1.202000
-0.157809,-0.494075,1.202000
-0.154915,-0.495309,1.205000
-0.151752,-0.495720,1.206000
-0.148461,-0.495720,1.206000
-0.144688,-0.494075,1.202000
-0.141525,-0.494487,1.203000
-0.138357,-0.494898,1.204000
-0.135744,-0.497364,1.210000
-0.132770,-0.498597,1.213000
-0.129567,-0.499008,1.214000
-0.127814,-0.505174,1.229000
-0.124358,-0.504763,1.228000
-0.120021,-0.500652,1.218000
-0.116123,-0.498186,1.212000
-0.112815,-0.498186,1.212000
-0.109959,-0.500241,1.217000
-0.106725,-0.500652,1.218000
-0.103316,-0.500241,1.217000
-0.099913,-0.499830,1.216000
-0.096753,-0.500652,1.218000
-0.093429,-0.500652,1.218000
-0.090179,-0.501063,1.219000
-0.087066,-0.502296,1.222000
-0.084074,-0.504352,1.227000
-0.080988,-0.505996,1.231000
-0.078196,-0.509695,1.240000
-0.075717,-0.515861,1.255000
-0.073156,-0.522027,1.270000
-0.070349,-0.526959,1.282000
-0.371959,-0.492020,1.205000
-0.370812,-0.494878,1.212000
-0.365653,-0.501411,1.228000
-0.349025,-0.483037,1.183000
-0.360997,-0.504270,1.235000
-0.348070,-0.490795,1.202000
-0.346224,-0.492837,1.207000
-0.338100,-0.485895,1.190000
-0.332320,-0.482221,1.181000
-0.329097,-0.482221,1.181000
-0.328633,-0.486304,1.191000
-0.325929,-0.487120,1.193000
-0.322944,-0.487529,1.194000
-0.317811,-0.484670,1.187000
-0.313512,-0.483037,1.183000
-0.309759,-0.482221,1.181000
-0.306536,-0.482221,1.181000
-0.303569,-0.482629,1.182000
-0.300598,-0.483037,1.183000
-0.298123,-0.484262,1.186000
-0.295384,-0.485079,1.188000
-0.292634,-0.485895,1.190000
-0.289872,-0.486712,1.192000
-0.286860,-0.487120,1.193000
-0.283842,-0.487529,1.194000
-0.278468,-0.483854,1.185000
-0.275002,-0.483445,1.184000
-0.271541,-0.483037,1.183000
-0.268539,-0.483445,1.184000
-0.265308,-0.483445,1.184000
-0.262520,-0.484262,1.186000
-0.259502,-0.484670,1.187000
-0.256478,-0.485079,1.188000
-0.253023,-0.484670,1.187000
-0.250204,-0.485487,1.189000
-0.246752,-0.485079,1.188000
-0.243509,-0.485079,1.188000
-0.240672,-0.485895,1.190000
-0.237823,-0.486712,1.192000
-0.234767,-0.487120,1.193000
-0.231705,-0.487529,1.194000
-0.228447,-0.487529,1.194000
-0.225565,-0.488345,1.196000
-0.222673,-0.489162,1.198000
-0.219770,-0.489979,1.200000
-0.216675,-0.490387,1.201000
-0.213575,-0.490795,1.202000
-0.210645,-0.491612,1.204000
-0.207531,-0.492020,1.205000
-0.204243,-0.492020,1.205000
-0.200954,-0.492020,1.205000
-0.197666,-0.492020,1.205000
-0.194377,-0.492020,1.205000
-0.191247,-0.492428,1.206000
-0.187644,-0.491612,1.204000
-0.184358,-0.491612,1.204000
-0.181223,-0.492020,1.205000
-0.178230,-0.492837,1.207000
-0.175081,-0.493245,1.208000
-0.171642,-0.492837,1.207000
-0.168487,-0.493245,1.208000
-0.165601,-0.494470,1.211000
-0.162698,-0.495695,1.214000
-0.159647,-0.496512,1.216000
-0.156714,-0.497737,1.219000
-0.153513,-0.498145,1.220000
-0.150184,-0.498145,1.220000
-0.146854,-0.498145,1.220000
-0.143760,-0.498961,1.222000
-0.140540,-0.499370,1.223000
-0.137090,-0.498961,1.222000
-0.134084,-0.500186,1.225000
-0.130954,-0.501003,1.227000
-0.128749,-0.505495,1.238000
-0.124966,-0.503861,1.234000
-0.120514,-0.499370,1.223000
-0.116410,-0.496103,1.215000
-0.113187,-0.496512,1.216000
-0.110230,-0.498145,1.220000
-0.106988,-0.498553,1.221000
-0.103571,-0.498145,1.220000
-0.100242,-0.498145,1.220000
-0.096992,-0.498553,1.221000
-0.093583,-0.498145,1.220000
-0.090401,-0.498961,1.222000
-0.087351,-0.500595,1.226000
-0.084485,-0.503453,1.233000
-0.081515,-0.505903,1.239000
-0.078890,-0.510803,1.251000
-0.076381,-0.516927,1.266000
-0.074078,-0.525094,1.286000
-0.373510,-0.482242,1.189000
-0.368397,-0.479809,1.183000
-0.363625,-0.477781,1.178000
-0.361328,-0.478997,1.181000
-0.362956,-0.485487,1.197000
-0.367202,-0.495627,1.222000
-0.368035,-0.501305,1.236000
-0.365842,-0.502927,1.240000
-0.362166,-0.502521,1.239000
-0.358206,-0.501710,1.237000
-0.340774,-0.481837,1.188000
-0.334123,-0.476970,1.176000
-0.329788,-0.475347,1.172000
-0.328261,-0.477781,1.178000
-0.325874,-0.478997,1.181000
-0.323471,-0.480214,1.184000
-0.320780,-0.481025,1.186000
-0.319150,-0.483459,1.192000
-0.314572,-0.481431,1.187000
-0.310808,-0.480620,1.185000
-0.307055,-0.479809,1.183000
-0.304083,-0.480214,1.184000
-0.301360,-0.481025,1.186000
-0.298878,-0.482242,1.189000
-0.296379,-0.483459,1.192000
-0.294847,-0.486298,1.199000
-0.293763,-0.489948,1.208000
-0.290226,-0.489543,1.207000
-0.286457,-0.488732,1.205000
-0.280583,-0.484270,1.194000
-0.276396,-0.482648,1.190000
-0.272918,-0.482242,1.189000
-0.269900,-0.482648,1.190000
-0.266877,-0.483053,1.191000
-0.264069,-0.483865,1.193000
-0.261032,-0.484270,1.194000
-0.257773,-0.484270,1.194000
-0.254515,-0.484270,1.194000
-0.251677,-0.485081,1.196000
-0.248413,-0.485081,1.196000
-0.245149,-0.485081,1.196000
-0.242087,-0.485487,1.197000
-0.239220,-0.486298,1.199000
-0.236341,-0.487109,1.201000
-0.233258,-0.487515,1.202000
-0.230169,-0.487920,1.203000
-0.227074,-0.488326,1.204000
-0.224160,-0.489137,1.206000
-0.221052,-0.489543,1.207000
-0.217758,-0.489543,1.207000
-0.214642,-0.489948,1.208000
-0.211695,-0.490759,1.210000
-0.208393,-0.490759,1.210000
-0.205090,-0.490759,1.210000
-0.201621,-0.490354,1.209000
-0.198322,-0.490354,1.209000
-0.195345,-0.491165,1.211000
-0.192040,-0.491165,1.211000
-0.188891,-0.491571,1.212000
-0.185890,-0.492382,1.214000
-0.182877,-0.493193,1.216000
-0.179854,-0.494004,1.218000
-0.176675,-0.494410,1.219000
-0.173490,-0.494815,1.220000
-0.170858,-0.496843,1.225000
-0.169019,-0.501305,1.236000
-0.167388,-0.506577,1.249000
-0.164111,-0.506983,1.250000
-0.159800,-0.504144,1.243000
-0.155778,-0.502116,1.238000
-0.151907,-0.500494,1.234000
-0.148540,-0.500494,1.234000
-0.145172,-0.500494,1.234000
-0.141574,-0.499682,1.232000
-0.137763,-0.498060,1.228000
-0.134412,-0.498060,1.228000
-0.131381,-0.499277,1.231000
-0.128645,-0.501710,1.237000
-0.125168,-0.501305,1.236000
-0.121302,-0.499277,1.231000
-0.117560,-0.497654,1.227000
-0.114304,-0.498060,1.228000
-0.110953,-0.498060,1.228000
-0.107602,-0.498060,1.228000
-0.104250,-0.498060,1.228000
-0.101145,-0.499277,1.231000
-0.097786,-0.499277,1.231000
-0.094580,-0.500088,1.233000
-0.091437,-0.501305,1.236000
-0.088562,-0.504144,1.243000
-0.085581,-0.506577,1.249000
-0.082567,-0.509011,1.255000
-0.079836,-0.513472,1.266000
-0.077829,-0.523206,1.290000
-0.377123,-0.475372,1.180000
-0.372319,-0.473357,1.175000
-0.369426,-0.473760,1.176000
-0.365282,-0.472552,1.173000
-0.361773,-0.472149,1.172000
-0.358880,-0.472552,1.173000
-0.356892,-0.474163,1.177000
-0.355182,-0.476177,1.182000
-0.357316,-0.483429,1.200000
-0.353746,-0.483026,1.199000
-0.351643,-0.484637,1.203000
-0.345175,-0.480206,1.192000
-0.337332,-0.473760,1.176000
-0.333838,-0.473357,1.175000
-0.332039,-0.475372,1.180000
-0.329933,-0.476983,1.184000
-0.327254,-0.477789,1.186000
-0.324563,-0.478594,1.188000
-0.322133,-0.479803,1.191000
-0.320489,-0.482220,1.197000
-0.316162,-0.480609,1.193000
-0.311332,-0.478192,1.187000
-0.307833,-0.477789,1.186000
-0.304597,-0.477789,1.186000
-0.302122,-0.478997,1.189000
-0.299129,-0.479400,1.190000
-0.296876,-0.481012,1.194000
-0.295093,-0.483429,1.200000
-0.295952,-0.490277,1.217000
-0.292871,-0.490680,1.218000
-0.288121,-0.488263,1.212000
-0.281758,-0.483026,1.199000
-0.277092,-0.480609,1.193000
-0.273148,-0.479400,1.190000
-0.270127,-0.479803,1.191000
-0.267101,-0.480206,1.192000
-0.264290,-0.481012,1.194000
-0.261469,-0.481817,1.196000
-0.258205,-0.481817,1.196000
-0.254941,-0.481817,1.196000
-0.251888,-0.482220,1.197000
-0.249036,-0.483026,1.199000
-0.245969,-0.483429,1.200000
-0.242896,-0.483832,1.201000
-0.239818,-0.484234,1.202000
-0.236932,-0.485040,1.204000
-0.234034,-0.485846,1.206000
-0.230934,-0.486249,1.207000
-0.227829,-0.486652,1.208000
-0.224718,-0.487054,1.209000
-0.221784,-0.487860,1.211000
-0.218299,-0.487457,1.210000
-0.215175,-0.487860,1.211000
-0.211870,-0.487860,1.211000
-0.208737,-0.488263,1.212000
