-0.302069,-0.120731,1.316000
-0.298478,-0.120731,1.316000
-0.294214,-0.120456,1.313000
-0.291959,-0.121006,1.319000
-0.289890,-0.121649,1.326000
-0.294907,-0.125318,1.366000
-0.303755,-0.130731,1.425000
-0.303023,-0.132107,1.440000
-0.287461,-0.126970,1.384000
-0.279380,-0.125043,1.363000
-0.276065,-0.125227,1.365000
-0.273537,-0.125777,1.371000
-0.271566,-0.126603,1.380000
-0.269352,-0.127337,1.388000
-0.267095,-0.128071,1.396000
-0.264605,-0.128713,1.403000
-0.261706,-0.129171,1.408000
-0.259512,-0.129997,1.417000
-0.360949,-0.121234,1.362000
-0.352511,-0.119632,1.344000
-0.347805,-0.119276,1.340000
-0.344148,-0.119276,1.340000
-0.339729,-0.119009,1.337000
-0.335075,-0.118653,1.333000
-0.330194,-0.118208,1.328000
-0.325586,-0.117852,1.324000
-0.321729,-0.117763,1.323000
-0.317878,-0.117674,1.322000
-0.313795,-0.117496,1.320000
-0.309252,-0.117140,1.316000
-0.305429,-0.117051,1.315000
-0.301840,-0.117051,1.315000
-0.298251,-0.117051,1.315000
-0.293766,-0.116695,1.311000
-0.287975,-0.115805,1.301000
-0.284862,-0.115983,1.303000
-0.283464,-0.116873,1.313000
-0.300984,-0.125685,1.412000
-0.300287,-0.127020,1.427000
-0.286423,-0.122748,1.379000
-0.278970,-0.121145,1.361000
-0.275660,-0.121323,1.363000
-0.272938,-0.121768,1.368000
-0.270976,-0.122569,1.377000
-0.268382,-0.123104,1.383000
-0.266521,-0.123994,1.393000
-0.265171,-0.125151,1.406000
-0.262078,-0.125507,1.410000
-0.257863,-0.125329,1.408000
-0.255103,-0.125863,1.414000
-0.361744,-0.117776,1.365000
-0.353560,-0.116309,1.348000
-0.348065,-0.115705,1.341000
-0.344405,-0.115705,1.341000
-0.339983,-0.115446,1.338000
-0.335326,-0.115101,1.334000
-0.330691,-0.114756,1.330000
-0.326077,-0.114411,1.326000
-0.321972,-0.114239,1.324000
-0.318119,-0.114152,1.323000
-0.314270,-0.114066,1.322000
-0.310192,-0.113893,1.320000
-0.306590,-0.113893,1.320000
-0.302529,-0.113721,1.318000
-0.299385,-0.113893,1.320000
-0.294438,-0.113376,1.314000
-0.288639,-0.112513,1.304000
-0.285080,-0.112513,1.304000
-0.283464,-0.113289,1.313000
-0.299279,-0.121141,1.404000
-0.299025,-0.122608,1.421000
-0.286631,-0.119070,1.380000
-0.279175,-0.117517,1.362000
-0.275660,-0.117604,1.363000
-0.272739,-0.117949,1.367000
-0.270385,-0.118553,1.374000
-0.267994,-0.119157,1.381000
-0.266330,-0.120106,1.392000
-0.268377,-0.122781,1.423000
-0.264494,-0.122781,1.423000
-0.257680,-0.121400,1.407000
-0.253660,-0.121314,1.406000
-0.363335,-0.114552,1.371000
-0.353823,-0.112714,1.349000
-0.347805,-0.111962,1.340000
-0.344148,-0.111962,1.340000
-0.339475,-0.111628,1.336000
-0.335075,-0.111377,1.333000
-0.330442,-0.111043,1.329000
-0.325832,-0.110709,1.325000
-0.321729,-0.110542,1.323000
-0.317878,-0.110458,1.322000
-0.314033,-0.110375,1.321000
-0.310662,-0.110458,1.322000
-0.307984,-0.110792,1.326000
-0.305742,-0.111294,1.332000
-0.303014,-0.111628,1.336000
-0.296231,-0.110458,1.322000
-0.289082,-0.109121,1.306000
-0.285955,-0.109288,1.308000
-0.283033,-0.109539,1.311000
-0.300771,-0.117894,1.411000
-0.300077,-0.119148,1.426000
-0.285177,-0.114719,1.373000
-0.277330,-0.113048,1.353000
-0.274447,-0.113383,1.357000
-0.271741,-0.113800,1.362000
-0.269992,-0.114636,1.372000
-0.267412,-0.115137,1.378000
-0.266138,-0.116223,1.391000
-0.265171,-0.117477,1.406000
-0.261892,-0.117727,1.409000
-0.256398,-0.116975,1.400000
-0.253119,-0.117226,1.403000
-0.364660,-0.111215,1.376000
-0.354610,-0.109275,1.352000
-0.348065,-0.108386,1.341000
-0.344405,-0.108386,1.341000
-0.339729,-0.108063,1.337000
-0.335577,-0.107901,1.335000
-0.330939,-0.107578,1.331000
-0.326569,-0.107335,1.328000
-0.322216,-0.107093,1.325000
-0.318119,-0.106931,1.323000
-0.314270,-0.106850,1.322000
-0.310897,-0.106931,1.323000
-0.309377,-0.107659,1.332000
-0.309644,-0.109033,1.349000
-0.305055,-0.108709,1.345000
-0.299144,-0.107901,1.335000
-0.296607,-0.108305,1.340000
-0.294262,-0.108790,1.346000
-0.296202,-0.110891,1.372000
-0.306526,-0.116226,1.438000
-0.305758,-0.117438,1.453000
-0.283931,-0.110487,1.367000
-0.277740,-0.109517,1.355000
-0.274649,-0.109760,1.358000
-0.272140,-0.110245,1.364000
-0.270582,-0.111134,1.375000
-0.268382,-0.111781,1.383000
-0.266904,-0.112750,1.395000
-0.263474,-0.112912,1.397000
-0.259475,-0.112831,1.396000
-0.256215,-0.113074,1.399000
-0.254201,-0.113882,1.409000
-0.356183,-0.106054,1.358000
-0.352477,-0.106054,1.358000
-0.345175,-0.104961,1.344000
-0.340237,-0.104570,1.339000
-0.335829,-0.104336,1.336000
-0.331437,-0.104101,1.333000
-0.326815,-0.103789,1.329000
-0.322216,-0.103477,1.325000
-0.318359,-0.103399,1.324000
-0.314270,-0.103242,1.322000
-0.311132,-0.103399,1.324000
-0.309377,-0.104023,1.332000
-0.309644,-0.105351,1.349000
-0.305963,-0.105351,1.349000
-0.300040,-0.104570,1.339000
-0.297271,-0.104882,1.343000
-0.295137,-0.105429,1.350000
-0.297281,-0.107538,1.377000
-0.305247,-0.111833,1.432000
-0.300287,-0.111442,1.427000
-0.283100,-0.106444,1.363000
-0.277330,-0.105663,1.353000
-0.274244,-0.105898,1.356000
-0.271940,-0.106444,1.363000
-0.270582,-0.107381,1.375000
-0.268382,-0.108006,1.383000
-0.266330,-0.108709,1.392000
-0.261965,-0.108475,1.389000
-0.258360,-0.108553,1.390000
-0.255482,-0.108943,1.395000
-0.256547,-0.111052,1.422000
-0.361167,-0.103780,1.377000
-0.357409,-0.103780,1.377000
-0.348771,-0.102348,1.358000
-0.342016,-0.101443,1.346000
-0.336834,-0.100991,1.340000
-0.331934,-0.100614,1.335000
-0.327553,-0.100388,1.332000
-0.322702,-0.100011,1.327000
-0.318599,-0.099861,1.325000
-0.314746,-0.099785,1.324000
-0.311602,-0.099936,1.326000
-0.310539,-0.100765,1.337000
-0.310562,-0.101971,1.353000
-0.305736,-0.101594,1.348000
-0.302281,-0.101669,1.349000
-0.299042,-0.101820,1.351000
-0.297760,-0.102649,1.362000
-0.297713,-0.103930,1.379000
-0.303755,-0.107397,1.425000
-0.296078,-0.106041,1.407000
-0.283100,-0.102725,1.363000
-0.277945,-0.102197,1.356000
-0.274649,-0.102348,1.358000
-0.272938,-0.103101,1.368000
-0.270976,-0.103780,1.377000
-0.268576,-0.104307,1.384000
-0.265756,-0.104684,1.389000
-0.261588,-0.104533,1.387000
-0.258174,-0.104684,1.389000
-0.255849,-0.105287,1.397000
-0.258531,-0.108000,1.433000
-0.351417,-0.100458,1.383000
-0.337337,-0.097479,1.342000
-0.331685,-0.096898,1.334000
-0.327307,-0.096680,1.331000
-0.322702,-0.096390,1.327000
-0.318599,-0.096245,1.325000
-0.314983,-0.096245,1.325000
-0.312542,-0.096608,1.330000
-0.311003,-0.097262,1.339000
-0.307808,-0.097407,1.341000
-0.304148,-0.097407,1.341000
-0.301161,-0.097625,1.344000
-0.300149,-0.098496,1.356000
-0.298853,-0.099295,1.367000
-0.299440,-0.100748,1.387000
-0.297574,-0.101402,1.396000
-0.290607,-0.100312,1.381000
-0.282061,-0.098642,1.358000
-0.277740,-0.098424,1.355000
-0.274851,-0.098714,1.359000
-0.272938,-0.099368,1.368000
-0.270582,-0.099876,1.375000
-0.267800,-0.100240,1.380000
-0.264608,-0.100458,1.383000
-0.260645,-0.100385,1.382000
-0.257617,-0.100675,1.386000
-0.255482,-0.101329,1.395000
-0.258531,-0.104089,1.433000
-0.339348,-0.094376,1.350000
-0.332431,-0.093467,1.337000
-0.327799,-0.093188,1.333000
-0.323431,-0.092978,1.330000
-0.319321,-0.092838,1.328000
-0.315934,-0.092908,1.329000
-0.313482,-0.093258,1.334000
-0.311468,-0.093747,1.341000
-0.308037,-0.093817,1.342000
-0.303695,-0.093607,1.339000
-0.301833,-0.094167,1.347000
-0.300149,-0.094796,1.356000
-0.300384,-0.096054,1.374000
-0.300952,-0.097452,1.394000
-0.296295,-0.097173,1.390000
-0.288292,-0.095774,1.370000
-0.282477,-0.095075,1.360000
-0.278765,-0.095075,1.360000
-0.276065,-0.095425,1.365000
-0.273736,-0.095914,1.372000
-0.270976,-0.096264,1.377000
-0.267994,-0.096543,1.381000
-0.264608,-0.096683,1.383000
-0.260833,-0.096683,1.383000
-0.257988,-0.097033,1.388000
-0.255849,-0.097662,1.397000
-0.347894,-0.092976,1.384000
-0.334669,-0.090423,1.346000
-0.328782,-0.089819,1.337000
-0.324161,-0.089550,1.333000
-0.320283,-0.089483,1.332000
-0.317361,-0.089684,1.335000
-0.317007,-0.090625,1.349000
-0.312164,-0.090289,1.344000
-0.307349,-0.089953,1.339000
-0.306643,-0.090826,1.352000
-0.306314,-0.091834,1.367000
-0.302362,-0.091767,1.366000
-0.299509,-0.092036,1.370000
-0.297497,-0.092573,1.378000
-0.292244,-0.092103,1.371000
-0.286188,-0.091364,1.360000
-0.282477,-0.091364,1.360000
-0.279380,-0.091565,1.363000
-0.276874,-0.091968,1.369000
-0.273736,-0.092170,1.372000
-0.270976,-0.092506,1.377000
-0.267218,-0.092506,1.377000
-0.263651,-0.092573,1.378000
-0.260079,-0.092640,1.379000
-0.257617,-0.093110,1.386000
-0.256215,-0.093984,1.399000
-0.335422,-0.087910,1.364000
-0.329754,-0.087394,1.356000
-0.325813,-0.087330,1.355000
-0.322115,-0.087330,1.355000
-0.320062,-0.087781,1.362000
-0.312861,-0.086814,1.347000
-0.309644,-0.086943,1.349000
-0.311406,-0.088490,1.373000
-0.307883,-0.088555,1.374000
-0.305461,-0.088941,1.380000
-0.297979,-0.087846,1.363000
-0.294907,-0.088039,1.366000
-0.289900,-0.087652,1.360000
-0.286188,-0.087652,1.360000
-0.282892,-0.087781,1.362000
-0.280405,-0.088168,1.368000
-0.277683,-0.088490,1.373000
-0.274534,-0.088683,1.376000
-0.271566,-0.088941,1.380000
-0.267024,-0.088683,1.376000
-0.263268,-0.088683,1.376000
-0.259890,-0.088812,1.378000
-0.257803,-0.089392,1.387000
-0.256764,-0.090359,1.402000
-0.334950,-0.085977,1.393000
-0.328296,-0.085237,1.381000
-0.319357,-0.083879,1.359000
-0.314487,-0.083570,1.354000
-0.313546,-0.084311,1.366000
-0.312086,-0.084928,1.376000
-0.308555,-0.084990,1.377000
-0.304133,-0.084805,1.374000
-0.298853,-0.084373,1.367000
-0.293827,-0.084002,1.361000
-0.289260,-0.083756,1.357000
-0.285978,-0.083879,1.359000
-0.283515,-0.084249,1.365000
-0.281020,-0.084620,1.371000
-0.278694,-0.085052,1.378000
-0.275532,-0.085237,1.381000
-0.271566,-0.085175,1.380000
-0.266053,-0.084620,1.371000
-0.262312,-0.084620,1.371000
-0.259325,-0.084866,1.375000
-0.257431,-0.085484,1.385000
-0.257314,-0.086718,1.405000
-0.324762,-0.081527,1.382000
-0.320758,-0.081468,1.381000
-0.317219,-0.081527,1.382000
-0.312313,-0.081232,1.377000
-0.307435,-0.080937,1.372000
-0.302805,-0.080701,1.368000
-0.297760,-0.080347,1.362000
-0.293395,-0.080170,1.359000
-0.289900,-0.080229,1.360000
-0.287030,-0.080465,1.364000
-0.284554,-0.080819,1.370000
-0.281840,-0.081114,1.375000
-0.279301,-0.081468,1.381000
-0.276130,-0.081645,1.384000
-0.271369,-0.081350,1.379000
-0.265665,-0.080760,1.369000
-0.262503,-0.080937,1.372000
-0.259513,-0.081173,1.376000
-0.257988,-0.081881,1.388000
-0.259145,-0.083474,1.415000
-0.324939,-0.078712,1.399000
-0.316989,-0.077699,1.381000
-0.310499,-0.077024,1.369000
-0.305642,-0.076743,1.364000
-0.301698,-0.076686,1.363000
-0.297760,-0.076630,1.362000
-0.293611,-0.076518,1.360000
-0.290539,-0.076686,1.363000
-0.287451,-0.076855,1.366000
-0.285177,-0.077249,1.373000
-0.282250,-0.077474,1.377000
-0.280110,-0.077924,1.385000
-0.276928,-0.078093,1.388000
-0.271173,-0.077530,1.378000
-0.265665,-0.077024,1.369000
-0.262694,-0.077249,1.373000
-0.260079,-0.077587,1.379000
-0.259847,-0.078656,1.398000
-0.321810,-0.075054,1.402000
-0.313901,-0.074091,1.384000
-0.307659,-0.073502,1.373000
-0.302362,-0.073127,1.366000
-0.298635,-0.073127,1.366000
-0.294691,-0.073074,1.365000
-0.291605,-0.073234,1.368000
-0.288924,-0.073502,1.373000
-0.286423,-0.073823,1.379000
-0.283889,-0.074144,1.385000
-0.281525,-0.074519,1.392000
-0.277327,-0.074412,1.390000
-0.271960,-0.073984,1.382000
-0.267024,-0.073663,1.376000
-0.264225,-0.073930,1.381000
-0.262342,-0.074466,1.391000
-0.265052,-0.076339,1.426000
-0.317757,-0.071177,1.401000
-0.308107,-0.069856,1.375000
-0.302584,-0.069450,1.367000
-0.298853,-0.069450,1.367000
-0.294907,-0.069399,1.366000
-0.291605,-0.069501,1.368000
-0.288082,-0.069552,1.369000
-0.285177,-0.069755,1.373000
-0.281635,-0.069806,1.374000
-0.278492,-0.069958,1.377000
-0.275133,-0.070060,1.379000
-0.271763,-0.070161,1.381000
-0.268188,-0.070212,1.382000
-0.265373,-0.070466,1.387000
-0.264417,-0.071228,1.402000
-0.266353,-0.072803,1.433000
-0.321159,-0.068075,1.416000
-0.310796,-0.066681,1.387000
-0.304576,-0.066152,1.376000
-0.300165,-0.066008,1.373000
-0.295770,-0.065864,1.370000
-0.292031,-0.065864,1.370000
-0.288082,-0.065816,1.369000
-0.283931,-0.065719,1.367000
-0.279790,-0.065623,1.365000
-0.275862,-0.065575,1.364000
-0.272539,-0.065671,1.366000
-0.269008,-0.065719,1.367000
-0.266636,-0.066056,1.374000
-0.265182,-0.066633,1.386000
-0.264983,-0.067546,1.405000
-0.319117,-0.063803,1.407000
-0.309227,-0.062578,1.380000
-0.303691,-0.062215,1.372000
-0.299728,-0.062170,1.371000
-0.295338,-0.062034,1.368000
-0.291392,-0.061989,1.367000
-0.287240,-0.061898,1.365000
-0.283515,-0.061898,1.365000
-0.279380,-0.061807,1.363000
-0.275660,-0.061807,1.363000
-0.272539,-0.061943,1.366000
-0.269401,-0.062079,1.369000
-0.266636,-0.062306,1.374000
-0.265756,-0.062986,1.389000
-0.268377,-0.064528,1.423000
-0.315715,-0.059323,1.392000
-0.307883,-0.058556,1.374000
-0.303248,-0.058386,1.370000
-0.298853,-0.058258,1.367000
-0.294259,-0.058088,1.363000
-0.290752,-0.058130,1.364000
-0.287240,-0.058173,1.365000
-0.284138,-0.058301,1.368000
-0.279995,-0.058215,1.366000
-0.276469,-0.058258,1.367000
-0.273138,-0.058343,1.369000
-0.270189,-0.058514,1.373000
-0.268382,-0.058940,1.383000
-0.268626,-0.059835,1.404000
-0.269509,-0.060900,1.429000
-0.330167,-0.056043,1.405000
-0.324242,-0.055684,1.396000
-0.318596,-0.055365,1.388000
-0.311633,-0.054807,1.374000
-0.304746,-0.054248,1.360000
-0.299264,-0.053929,1.352000
-0.294699,-0.053770,1.348000
-0.290157,-0.053610,1.344000
-0.287555,-0.053809,1.349000
-0.285346,-0.054089,1.356000
-0.284969,-0.054727,1.372000
-0.281225,-0.054727,1.372000
-0.279503,-0.055126,1.382000
-0.276130,-0.055205,1.384000
-0.275502,-0.055844,1.400000
-0.274592,-0.056442,1.415000
-0.275322,-0.057399,1.439000
-0.274035,-0.057958,1.453000
-0.332813,-0.052023,1.400000
-0.324057,-0.051243,1.379000
-0.318668,-0.050983,1.372000
-0.313087,-0.050685,1.364000
-0.307777,-0.050425,1.357000
-0.301609,-0.050016,1.346000
-0.296386,-0.049756,1.339000
-0.291857,-0.049608,1.335000
-0.287998,-0.049570,1.334000
-0.285850,-0.049831,1.341000
-0.285136,-0.050351,1.355000
-0.288085,-0.051540,1.387000
-0.283684,-0.051428,1.384000
-0.280716,-0.051577,1.388000
-0.278524,-0.051874,1.396000
-0.274911,-0.051912,1.397000
-0.277891,-0.053212,1.432000
-0.277044,-0.053807,1.448000
-0.272904,-0.053769,1.447000
-0.335431,-0.048030,1.395000
-0.326632,-0.047307,1.374000
-0.319357,-0.046791,1.359000
-0.314023,-0.046550,1.352000
-0.308956,-0.046343,1.346000
-0.303468,-0.046068,1.338000
-0.298024,-0.045792,1.330000
-0.293509,-0.045654,1.326000
-0.289890,-0.045654,1.326000
-0.286703,-0.045723,1.328000
-0.284997,-0.046033,1.337000
-0.285978,-0.046791,1.359000
-0.287669,-0.047686,1.385000
-0.281225,-0.047238,1.372000
-0.280312,-0.047720,1.386000
-0.278724,-0.048099,1.397000
-0.287899,-0.050371,1.463000
-0.281384,-0.049924,1.450000
-0.275131,-0.049511,1.438000
-0.273092,-0.049855,1.448000
-0.333888,-0.043526,1.373000
-0.326775,-0.043082,1.359000
-0.319976,-0.042670,1.346000
-0.315127,-0.042511,1.341000
-0.310771,-0.042416,1.338000
-0.306201,-0.042289,1.334000
-0.301200,-0.042099,1.328000
-0.296455,-0.041941,1.323000
-0.292402,-0.041877,1.321000
-0.289234,-0.041941,1.323000
-0.286487,-0.042067,1.327000
-0.288408,-0.042892,1.353000
-0.292291,-0.044033,1.389000
-0.286838,-0.043779,1.381000
-0.285324,-0.044128,1.392000
-0.286784,-0.044952,1.418000
-0.292690,-0.046506,1.467000
-0.293409,-0.047266,1.491000
-0.288758,-0.047171,1.488000
-0.276470,-0.045808,1.445000
-0.274601,-0.046157,1.456000
-0.335176,-0.039489,1.363000
-0.327809,-0.039054,1.348000
-0.321966,-0.038794,1.339000
-0.316885,-0.038620,1.333000
-0.312542,-0.038533,1.330000
-0.308680,-0.038504,1.329000
-0.304594,-0.038446,1.327000
-0.299839,-0.038301,1.322000
-0.295111,-0.038156,1.317000
-0.291074,-0.038098,1.315000
-0.287704,-0.038127,1.316000
-0.284544,-0.038185,1.318000
-0.285423,-0.038794,1.339000
-0.294816,-0.040590,1.401000
-0.292031,-0.040735,1.406000
-0.293933,-0.041546,1.434000
-0.297300,-0.042589,1.470000
-0.295882,-0.042965,1.483000
-0.297345,-0.043777,1.511000
-0.273218,-0.041372,1.428000
-0.272149,-0.041807,1.443000
-0.338150,-0.035690,1.360000
-0.331488,-0.035375,1.348000
-0.325863,-0.035166,1.340000
-0.321004,-0.035034,1.335000
-0.316172,-0.034903,1.330000
-0.311837,-0.034824,1.327000
-0.308216,-0.034824,1.327000
-0.304365,-0.034798,1.326000
-0.300292,-0.034746,1.324000
-0.295559,-0.034614,1.319000
-0.291295,-0.034536,1.316000
-0.287485,-0.034509,1.315000
-0.284328,-0.034562,1.317000
-0.282865,-0.034824,1.327000
-0.293974,-0.036661,1.397000
-0.294523,-0.037212,1.418000
-0.300082,-0.038420,1.464000
-0.304177,-0.039469,1.504000
-0.300870,-0.039574,1.508000
-0.271113,-0.037186,1.417000
-0.268755,-0.037396,1.425000
-0.340856,-0.031885,1.356000
-0.334172,-0.031603,1.344000
-0.328782,-0.031438,1.337000
-0.323918,-0.031320,1.332000
-0.319802,-0.031273,1.330000
-0.315459,-0.031203,1.327000
-0.311367,-0.031156,1.325000
-0.307519,-0.031132,1.324000
-0.303676,-0.031109,1.323000
-0.299612,-0.031062,1.321000
-0.295111,-0.030968,1.317000
-0.290852,-0.030897,1.314000
-0.287048,-0.030874,1.313000
-0.283896,-0.030921,1.315000
-0.282439,-0.031156,1.325000
-0.290397,-0.032449,1.380000
-0.300131,-0.033977,1.445000
-0.302952,-0.034753,1.478000
-0.302357,-0.035153,1.495000
-0.304861,-0.035929,1.528000
-0.304823,-0.036423,1.549000
-0.286041,-0.034659,1.474000
-0.269200,-0.033084,1.407000
-0.266491,-0.033225,1.413000
-0.346081,-0.028309,1.362000
-0.337588,-0.027914,1.343000
-0.332680,-0.027810,1.338000
-0.328291,-0.027748,1.335000
-0.324161,-0.027706,1.333000
-0.320042,-0.027664,1.331000
-0.315697,-0.027602,1.328000
-0.311602,-0.027561,1.326000
-0.307519,-0.027519,1.324000
-0.303906,-0.027519,1.324000
-0.300066,-0.027498,1.323000
-0.295783,-0.027436,1.320000
-0.291516,-0.027374,1.317000
-0.287485,-0.027332,1.315000
-0.284328,-0.027374,1.317000
-0.282652,-0.027561,1.326000
-0.291659,-0.028808,1.386000
-0.299301,-0.029951,1.441000
-0.301722,-0.030595,1.472000
-0.300132,-0.030845,1.484000
-0.301070,-0.031364,1.509000
-0.300887,-0.031780,1.529000
-0.280802,-0.030076,1.447000
-0.271113,-0.029452,1.417000
-0.342524,-0.024339,1.348000
-0.335577,-0.024104,1.335000
-0.331188,-0.024050,1.332000
-0.327061,-0.024014,1.330000
-0.322945,-0.023978,1.328000
-0.319080,-0.023960,1.327000
-0.314746,-0.023906,1.324000
-0.310662,-0.023870,1.322000
-0.306590,-0.023833,1.320000
-0.302988,-0.023833,1.320000
-0.299158,-0.023815,1.319000
-0.295335,-0.023797,1.318000
-0.291295,-0.023761,1.316000
-0.287704,-0.023761,1.316000
-0.284760,-0.023815,1.319000
-0.284358,-0.024086,1.334000
-0.293764,-0.025206,1.396000
-0.299716,-0.026054,1.443000
-0.300492,-0.026470,1.466000
-0.298312,-0.026632,1.475000
-0.297478,-0.026921,1.491000
-0.303249,-0.027824,1.541000
-0.282160,-0.026253,1.454000
-0.271496,-0.025621,1.419000
-0.341762,-0.020614,1.345000
-0.335326,-0.020446,1.334000
-0.331188,-0.020415,1.332000
-0.327061,-0.020384,1.330000
-0.323188,-0.020369,1.329000
-0.319080,-0.020338,1.327000
-0.314983,-0.020308,1.325000
-0.311132,-0.020292,1.324000
-0.307287,-0.020277,1.323000
-0.303447,-0.020262,1.322000
-0.300066,-0.020277,1.323000
-0.296455,-0.020277,1.323000
-0.292623,-0.020262,1.322000
-0.289234,-0.020277,1.323000
-0.286703,-0.020354,1.328000
-0.288194,-0.020722,1.352000
-0.296078,-0.021564,1.407000
-0.299301,-0.022086,1.441000
-0.300287,-0.022453,1.465000
-0.299121,-0.022668,1.479000
-0.301868,-0.023189,1.513000
-0.305610,-0.023802,1.553000
-0.350826,-0.017208,1.366000
-0.340745,-0.016893,1.341000
-0.334823,-0.016780,1.332000
-0.330691,-0.016755,1.330000
-0.326815,-0.016742,1.329000
-0.322702,-0.016717,1.327000
-0.318599,-0.016692,1.325000
-0.314746,-0.016679,1.324000
-0.310897,-0.016666,1.323000
-0.307287,-0.016666,1.323000
-0.303447,-0.016654,1.322000
-0.300292,-0.016679,1.324000
-0.296903,-0.016692,1.325000
-0.293730,-0.016717,1.327000
-0.291420,-0.016792,1.333000
-0.291452,-0.017007,1.350000
-0.294802,-0.017422,1.383000
-0.297552,-0.017813,1.414000
-0.299716,-0.018178,1.443000
-0.300492,-0.018468,1.466000
-0.285975,-0.017813,1.414000
-0.280719,-0.017725,1.407000
-0.282783,-0.018103,1.437000
-0.272069,-0.017662,1.402000
-0.342778,-0.013312,1.349000
-0.336331,-0.013204,1.338000
-0.332183,-0.013184,1.336000
-0.328045,-0.013164,1.334000
-0.323918,-0.013145,1.332000
-0.319561,-0.013115,1.329000
-0.315697,-0.013105,1.328000
-0.312307,-0.013115,1.329000
-0.306358,-0.013016,1.319000
-0.302529,-0.013007,1.318000
-0.298932,-0.013007,1.318000
-0.295335,-0.013007,1.318000
-0.292180,-0.013026,1.320000
-0.289015,-0.013046,1.322000
-0.286703,-0.013105,1.328000
-0.286276,-0.013253,1.343000
-0.285557,-0.013391,1.357000
-0.283723,-0.013480,1.366000
-0.283889,-0.013668,1.385000
-0.282132,-0.013766,1.395000
-0.278724,-0.013786,1.397000
-0.273731,-0.013727,1.391000
-0.272263,-0.013845,1.403000
-0.272070,-0.014033,1.422000
-0.343118,-0.009745,1.365000
-0.332929,-0.009560,1.339000
-0.326077,-0.009467,1.326000
-0.321486,-0.009438,1.322000
-0.316916,-0.009410,1.318000
-0.313319,-0.009410,1.318000
-0.309722,-0.009410,1.318000
-0.306590,-0.009424,1.320000
-0.302758,-0.009417,1.319000
-0.299158,-0.009417,1.319000
-0.295559,-0.009417,1.319000
-0.292623,-0.009438,1.322000
-0.289453,-0.009452,1.324000
-0.286919,-0.009488,1.329000
-0.285423,-0.009560,1.339000
-0.284294,-0.009645,1.351000
-0.282684,-0.009717,1.361000
-0.282660,-0.009845,1.379000
-0.280919,-0.009916,1.389000
-0.277926,-0.009945,1.393000
-0.274518,-0.009959,1.395000
-0.272069,-0.010009,1.402000
-0.270539,-0.010095,1.414000
-0.346889,-0.006086,1.380000
-0.333426,-0.005914,1.341000
-0.326569,-0.005857,1.328000
-0.321972,-0.005839,1.324000
-0.317397,-0.005821,1.320000
-0.313795,-0.005821,1.320000
-0.310192,-0.005821,1.320000
-0.306822,-0.005826,1.321000
-0.302758,-0.005817,1.319000
-0.299158,-0.005817,1.319000
-0.295559,-0.005817,1.319000
-0.292623,-0.005830,1.322000
-0.289671,-0.005844,1.325000
-0.286919,-0.005861,1.329000
-0.285423,-0.005905,1.339000
-0.283453,-0.005941,1.347000
-0.282269,-0.005993,1.359000
-0.281430,-0.006055,1.373000
-0.278289,-0.006068,1.376000
-0.276330,-0.006108,1.385000
-0.273731,-0.006135,1.391000
-0.271681,-0.006174,1.400000
-0.270156,-0.006227,1.412000
-0.349151,-0.002335,1.389000
-0.334420,-0.002261,1.345000
-0.326323,-0.002231,1.327000
-0.321729,-0.002224,1.323000
-0.317397,-0.002219,1.320000
-0.314033,-0.002221,1.321000
-0.310192,-0.002219,1.320000
-0.306822,-0.002221,1.321000
-0.302988,-0.002219,1.320000
-0.299612,-0.002221,1.321000
-0.296007,-0.002221,1.321000
-0.292623,-0.002222,1.322000
-0.289453,-0.002226,1.324000
-0.287135,-0.002236,1.330000
-0.285636,-0.002253,1.340000
-0.282400,-0.002256,1.342000
-0.280400,-0.002270,1.350000
-0.279175,-0.002290,1.362000
-0.276874,-0.002301,1.369000
-0.274734,-0.002315,1.377000
-0.272747,-0.002330,1.386000
-0.270711,-0.002345,1.395000
-0.269391,-0.002367,1.408000
-0.271395,-0.002419,1.439000
-0.348900,0.001455,1.388000
-0.334918,0.001412,1.347000
-0.325832,0.001389,1.325000
-0.321000,0.001383,1.320000
-0.316916,0.001381,1.318000
-0.313557,0.001382,1.319000
-0.309722,0.001381,1.318000
-0.306125,0.001381,1.318000
-0.302529,0.001381,1.318000
-0.298932,0.001381,1.318000
-0.295111,0.001380,1.317000
-0.291738,0.001381,1.318000
-0.288797,0.001384,1.321000
-0.286487,0.001391,1.327000
-0.285423,0.001403,1.339000
-0.282190,0.001405,1.341000
-0.279776,0.001412,1.347000
-0.277945,0.001421,1.356000
-0.275862,0.001429,1.364000
-0.273736,0.001438,1.372000
-0.271566,0.001446,1.380000
-0.269741,0.001457,1.390000
-0.268434,0.001470,1.403000
-0.267434,0.001486,1.418000
-0.335912,0.005103,1.351000
-0.326077,0.005008,1.326000
-0.321486,0.004993,1.322000
-0.317397,0.004986,1.320000
-0.314270,0.004993,1.322000
-0.310427,0.004990,1.321000
-0.306822,0.004990,1.321000
-0.303217,0.004990,1.321000
-0.299839,0.004993,1.322000
-0.296231,0.004993,1.322000
-0.292623,0.004993,1.322000
-0.289453,0.005001,1.324000
-0.287350,0.005027,1.331000
-0.286489,0.005076,1.344000
-0.283873,0.005095,1.349000
-0.281438,0.005118,1.355000
-0.278560,0.005133,1.359000
-0.276874,0.005171,1.369000
-0.274534,0.005197,1.376000
-0.272747,0.005235,1.386000
-0.270711,0.005269,1.395000
-0.269774,0.005326,1.410000
-0.336658,0.008809,1.354000
-0.327307,0.008660,1.331000
-0.322216,0.008621,1.325000
-0.317878,0.008601,1.322000
-0.314270,0.008601,1.322000
-0.310662,0.008601,1.322000
-0.306590,0.008588,1.320000
-0.302988,0.008588,1.320000
-0.299385,0.008588,1.320000
-0.296455,0.008608,1.323000
-0.293287,0.008621,1.325000
-0.290546,0.008647,1.329000
-0.288214,0.008686,1.335000
-0.287342,0.008770,1.348000
-0.286399,0.008855,1.361000
-0.284346,0.008907,1.369000
-0.280405,0.008900,1.368000
-0.277480,0.008926,1.372000
-0.275133,0.008972,1.379000
-0.273928,0.009057,1.392000
-0.273428,0.009167,1.409000
-0.270539,0.009200,1.414000
-0.333947,0.012541,1.358000
-0.328781,0.012486,1.352000
-0.323649,0.012431,1.346000
-0.319262,0.012403,1.343000
-0.315127,0.012384,1.341000
-0.311468,0.012384,1.341000
-0.307119,0.012357,1.338000
-0.301427,0.012274,1.329000
-0.295559,0.012181,1.319000
-0.292180,0.012191,1.320000
-0.288797,0.012200,1.321000
-0.290805,0.012440,1.347000
-0.293950,0.012735,1.379000
-0.295026,0.012948,1.402000
-0.291823,0.012976,1.405000
-0.287579,0.012957,1.403000
-0.282739,0.012911,1.398000
-0.278325,0.012883,1.395000
-0.282783,0.013271,1.437000
-0.345361,0.016618,1.389000
-0.339603,0.016523,1.381000
-0.334861,0.016475,1.377000
-0.326054,0.016224,1.356000
-0.319262,0.016068,1.343000
-0.314892,0.016032,1.340000
-0.311468,0.016044,1.341000
-0.306201,0.015960,1.334000
-0.300066,0.015829,1.323000
-0.295111,0.015757,1.317000
-0.291738,0.015769,1.318000
-0.288578,0.015793,1.320000
-0.292964,0.016236,1.357000
-0.297147,0.016678,1.394000
-0.298393,0.016965,1.418000
-0.296393,0.017073,1.427000
-0.294138,0.017169,1.435000
-0.290222,0.017169,1.435000
-0.292890,0.017564,1.468000
-0.342799,0.020483,1.394000
-0.337050,0.020365,1.386000
-0.328218,0.020057,1.365000
-0.319976,0.019777,1.346000
-0.315597,0.019733,1.343000
-0.311700,0.019719,1.342000
-0.306660,0.019630,1.336000
-0.300066,0.019439,1.323000
-0.294887,0.019337,1.316000
-0.291516,0.019351,1.317000
-0.288359,0.019381,1.319000
-0.292316,0.019895,1.354000
-0.297787,0.020527,1.397000
-0.298183,0.020821,1.417000
-0.298470,0.021114,1.437000
-0.297418,0.021320,1.451000
-0.297300,0.021599,1.470000
-0.296281,0.021820,1.485000
-0.340832,0.024148,1.386000
-0.334131,0.023939,1.374000
-0.325813,0.023608,1.355000
-0.322828,0.023660,1.358000
-0.317947,0.023573,1.353000
-0.313093,0.023486,1.348000
-0.307808,0.023364,1.341000
-0.301427,0.023155,1.329000
-0.297351,0.023120,1.327000
-0.293730,0.023120,1.327000
-0.290546,0.023155,1.329000
-0.290805,0.023468,1.347000
-0.289473,0.023660,1.358000
-0.291028,0.024095,1.383000
-0.295146,0.024757,1.421000
-0.298238,0.025350,1.455000
-0.299930,0.025838,1.483000
-0.304063,0.026552,1.524000
-0.338373,0.027729,1.376000
-0.329025,0.027265,1.353000
-0.324370,0.027185,1.349000
-0.320451,0.027164,1.348000
-0.318182,0.027285,1.354000
-0.312397,0.027104,1.345000
-0.309185,0.027144,1.347000
-0.308231,0.027386,1.359000
-0.305194,0.027446,1.362000
-0.299264,0.027245,1.352000
-0.293825,0.027084,1.344000
-0.288430,0.026923,1.336000
-0.286276,0.027064,1.343000
-0.286399,0.027426,1.361000
-0.292031,0.028333,1.406000
-0.298033,0.029300,1.454000
-0.303166,0.030207,1.499000
-0.306656,0.030973,1.537000
-0.332963,0.030980,1.354000
-0.326593,0.030729,1.343000
-0.322447,0.030683,1.341000
-0.317836,0.030591,1.337000
-0.314892,0.030660,1.340000
-0.311468,0.030683,1.341000
-0.310562,0.030958,1.353000
-0.308458,0.031118,1.360000
-0.302953,0.030935,1.352000
-0.296829,0.030683,1.341000
-0.291857,0.030546,1.335000
-0.287350,0.030454,1.331000
-0.283718,0.030454,1.331000
-0.281348,0.030591,1.337000
-0.282477,0.031118,1.360000
-0.301070,0.034527,1.509000
-0.340885,0.035111,1.371000
-0.331733,0.034548,1.349000
-0.325863,0.034317,1.340000
-0.321244,0.034215,1.336000
-0.315697,0.034010,1.328000
-0.312777,0.034087,1.331000
-0.310074,0.034189,1.335000
-0.308267,0.034394,1.343000
-0.305055,0.034445,1.345000
-0.300488,0.034343,1.341000
-0.297050,0.034368,1.342000
-0.293388,0.034368,1.342000
-0.290157,0.034420,1.344000
-0.284358,0.034163,1.334000
-0.280506,0.034138,1.333000
-0.277284,0.034189,1.335000
-0.279995,0.034983,1.366000
-0.289413,0.036648,1.431000
-0.335664,0.038257,1.350000
-0.330258,0.038059,1.343000
-0.325377,0.037917,1.338000
-0.321004,0.037832,1.335000
-0.314508,0.037492,1.323000
-0.311132,0.037521,1.324000
-0.308216,0.037606,1.327000
-0.304824,0.037634,1.328000
-0.300973,0.037606,1.327000
-0.296679,0.037521,1.324000
-0.293730,0.037606,1.327000
-0.290764,0.037691,1.330000
-0.287782,0.037776,1.333000
-0.284571,0.037832,1.335000
-0.280086,0.037719,1.331000
-0.277699,0.037889,1.337000
-0.277740,0.038399,1.355000
-0.281121,0.039391,1.390000
-0.342364,0.042315,1.362000
-0.332680,0.041569,1.338000
-0.329028,0.041569,1.338000
-0.325377,0.041569,1.338000
-0.322206,0.041631,1.340000
-0.314508,0.041103,1.323000
-0.311132,0.041134,1.324000
-0.308216,0.041227,1.327000
-0.304824,0.041258,1.328000
-0.300746,0.041196,1.326000
-0.297575,0.041258,1.328000
-0.294837,0.041383,1.332000
-0.291857,0.041476,1.335000
-0.288214,0.041476,1.335000
-0.284358,0.041445,1.334000
-0.281559,0.041569,1.338000
-0.275415,0.041196,1.326000
-0.272001,0.041227,1.327000
-0.270604,0.041569,1.338000
-0.336583,0.045254,1.339000
-0.330194,0.044882,1.328000
-0.327061,0.044950,1.330000
-0.324891,0.045153,1.336000
-0.322447,0.045322,1.341000
-0.316410,0.044984,1.331000
-0.313717,0.045119,1.335000
-0.310771,0.045220,1.338000
-0.306431,0.045119,1.335000
-0.301200,0.044882,1.328000
-0.297127,0.044815,1.326000
-0.294173,0.044916,1.329000
-0.291639,0.045085,1.334000
-0.287998,0.045085,1.334000
-0.285423,0.045254,1.339000
-0.281559,0.045220,1.338000
-0.274999,0.044747,1.324000
-0.269541,0.044443,1.315000
-0.266559,0.044545,1.318000
-0.336331,0.048872,1.338000
-0.330442,0.048543,1.329000
-0.327307,0.048616,1.331000
-0.324647,0.048762,1.335000
-0.321244,0.048799,1.336000
-0.316172,0.048580,1.330000
-0.312542,0.048580,1.330000
-0.309145,0.048616,1.331000
-0.306201,0.048726,1.334000
-0.302561,0.048726,1.334000
-0.298920,0.048726,1.334000
-0.295501,0.048762,1.335000
-0.293825,0.049091,1.344000
-0.289078,0.048909,1.339000
-0.285850,0.048982,1.341000
-0.281559,0.048872,1.338000
-0.274999,0.048361,1.324000
-0.269746,0.048068,1.316000
-0.266559,0.048141,1.318000
-0.339348,0.052995,1.350000
-0.331934,0.052406,1.335000
-0.328782,0.052484,1.337000
-0.325377,0.052523,1.338000
-0.320523,0.052327,1.333000
-0.315459,0.052092,1.327000
-0.311602,0.052052,1.326000
-0.307984,0.052052,1.326000
-0.305513,0.052249,1.331000
-0.302787,0.052406,1.335000
-0.298696,0.052327,1.333000
-0.294837,0.052288,1.332000
-0.292295,0.052484,1.337000
-0.289078,0.052563,1.339000
-0.285423,0.052563,1.339000
-0.281138,0.052445,1.336000
-0.275622,0.052092,1.327000
-0.270566,0.051817,1.320000
-0.268379,0.052092,1.327000
-0.340388,0.057477,1.369000
-0.333455,0.056931,1.356000
-0.327322,0.056511,1.346000
-0.321725,0.056175,1.338000
-0.315697,0.055755,1.328000
-0.311602,0.055671,1.326000
-0.307751,0.055629,1.325000
-0.305283,0.055839,1.330000
-0.303695,0.056217,1.339000
-0.299816,0.056175,1.338000
-0.295943,0.056133,1.337000
-0.293169,0.056301,1.341000
-0.289293,0.056259,1.340000
-0.285210,0.056175,1.338000
-0.280717,0.056007,1.334000
-0.276453,0.055881,1.331000
-0.273846,0.056091,1.336000
-0.273031,0.056679,1.350000
-0.342616,0.060944,1.363000
-0.333177,0.059916,1.340000
-0.328537,0.059737,1.336000
-0.324647,0.059692,1.335000
-0.320523,0.059603,1.333000
-0.315221,0.059290,1.326000
-0.311367,0.059245,1.325000
-0.307984,0.059290,1.326000
-0.306201,0.059648,1.334000
-0.303241,0.059782,1.337000
-0.298248,0.059514,1.331000
-0.293951,0.059379,1.328000
-0.290764,0.059469,1.330000
-0.287782,0.059603,1.333000
-0.284358,0.059648,1.334000
-0.280296,0.059558,1.332000
-0.275830,0.059379,1.328000
-0.272821,0.059514,1.331000
-0.272424,0.060229,1.347000
-0.345827,0.064569,1.361000
-0.337086,0.063620,1.341000
-0.331188,0.063193,1.332000
-0.327061,0.063099,1.330000
-0.323918,0.063193,1.332000
-0.320283,0.063193,1.332000
-0.315221,0.062909,1.326000
-0.311132,0.062814,1.324000
-0.308448,0.063004,1.328000
-0.306660,0.063383,1.336000
-0.305282,0.063858,1.346000
-0.300488,0.063620,1.341000
-0.294615,0.063146,1.331000
-0.289234,0.062766,1.323000
-0.285192,0.062672,1.321000
-0.282439,0.062861,1.325000
-0.280506,0.063241,1.333000
-0.277492,0.063383,1.336000
-0.274051,0.063431,1.337000
-0.272829,0.064000,1.349000
-0.343540,0.067832,1.352000
-0.332058,0.066277,1.321000
-0.327210,0.066026,1.316000
-0.323864,0.066076,1.317000
-0.321486,0.066327,1.322000
-0.318119,0.066377,1.323000
-0.312606,0.065976,1.315000
-0.307138,0.065574,1.307000
-0.303571,0.065574,1.307000
-0.300233,0.065624,1.308000
-0.296210,0.065524,1.306000
-0.291525,0.065273,1.301000
-0.288860,0.065474,1.305000
-0.284643,0.065323,1.302000
-0.281953,0.065524,1.306000
-0.278602,0.065574,1.307000
-0.276508,0.065925,1.314000
-0.273338,0.066026,1.316000
-0.270771,0.066277,1.321000
-0.270604,0.067130,1.338000
-0.342778,0.071363,1.349000
-0.332058,0.069882,1.321000
-0.327459,0.069670,1.317000
-0.324356,0.069776,1.319000
-0.321972,0.070040,1.324000
-0.318840,0.070146,1.326000
-0.313082,0.069670,1.317000
-0.307842,0.069300,1.310000
-0.303571,0.069141,1.307000
-0.299774,0.069088,1.306000
-0.291901,0.068083,1.287000
-0.286596,0.067660,1.279000
-0.285097,0.068136,1.288000
-0.283550,0.068612,1.297000
-0.281953,0.069088,1.306000
-0.278815,0.069194,1.308000
-0.276719,0.069564,1.315000
-0.273545,0.069670,1.317000
-0.270771,0.069882,1.321000
-0.269391,0.070464,1.332000
-0.332310,0.073543,1.322000
-0.326961,0.073153,1.315000
-0.323618,0.073209,1.316000
-0.321000,0.073431,1.320000
-0.318119,0.073598,1.323000
-0.313082,0.073264,1.317000
-0.307842,0.072875,1.310000
-0.302874,0.072541,1.304000
-0.297938,0.072207,1.298000
-0.290313,0.071206,1.280000
-0.285923,0.070984,1.276000
-0.284212,0.071429,1.284000
-0.282894,0.071985,1.294000
-0.281953,0.072652,1.306000
-0.278602,0.072708,1.307000
-0.276298,0.073042,1.313000
-0.272922,0.073098,1.314000
-0.270156,0.073320,1.318000
-0.268986,0.073988,1.330000
-0.339348,0.078784,1.350000
-0.331188,0.077734,1.332000
-0.326569,0.077501,1.328000
-0.323431,0.077617,1.330000
-0.319561,0.077559,1.329000
-0.315934,0.077559,1.329000
-0.311602,0.077384,1.326000
-0.305196,0.076684,1.314000
-0.299315,0.076100,1.304000
-0.291901,0.075108,1.287000
-0.287492,0.074874,1.283000
-0.285540,0.075283,1.290000
-0.284862,0.076042,1.303000
-0.284760,0.076975,1.319000
-0.281800,0.077150,1.322000
-0.279244,0.077442,1.327000
-0.275830,0.077501,1.328000
-0.272616,0.077617,1.330000
-0.271009,0.078201,1.340000
-0.333674,0.081980,1.342000
-0.327061,0.081247,1.330000
-0.323431,0.081247,1.330000
-0.319802,0.081247,1.330000
-0.317123,0.081491,1.334000
-0.312542,0.081247,1.330000
-0.305661,0.080392,1.316000
-0.299774,0.079781,1.306000
-0.296210,0.079781,1.306000
-0.294438,0.080270,1.314000
-0.291516,0.080453,1.317000
-0.288797,0.080697,1.321000
-0.286271,0.081003,1.326000
-0.283292,0.081186,1.329000
-0.280086,0.081308,1.331000
-0.277284,0.081552,1.335000
-0.274666,0.081858,1.340000
-0.274649,0.082957,1.358000
-0.279722,0.085645,1.402000
-0.331242,0.085962,1.347000
-0.328295,0.086153,1.350000
-0.322928,0.085706,1.343000
-0.319262,0.085706,1.343000
-0.313952,0.085260,1.336000
-0.310306,0.085260,1.336000
-0.304594,0.084685,1.327000
-0.300746,0.084621,1.326000
-0.294662,0.083919,1.315000
-0.289746,0.083536,1.309000
-0.286392,0.083600,1.310000
-0.284544,0.084111,1.318000
-0.284997,0.085323,1.337000
-0.284294,0.086217,1.351000
-0.282269,0.086727,1.359000
-0.280610,0.087366,1.369000
-0.280312,0.088450,1.386000
-0.283712,0.090748,1.422000
-0.335422,0.090769,1.364000
-0.331213,0.090636,1.362000
-0.323889,0.089638,1.347000
-0.317361,0.088839,1.335000
-0.313952,0.088906,1.336000
-0.313093,0.089704,1.348000
-0.309415,0.089704,1.348000
-0.299612,0.087907,1.321000
-0.295111,0.087641,1.317000
-0.290188,0.087242,1.311000
-0.284424,0.086577,1.301000
-0.280874,0.086577,1.301000
-0.283292,0.088440,1.329000
-0.287451,0.090902,1.366000
-0.288500,0.092433,1.389000
-0.285324,0.092632,1.392000
-0.283952,0.093431,1.404000
-0.331943,0.094561,1.365000
-0.324370,0.093452,1.349000
-0.322353,0.093937,1.356000
-0.316302,0.093244,1.346000
-0.313790,0.093591,1.351000
-0.308956,0.093244,1.346000
-0.298705,0.091235,1.317000
-0.293990,0.090889,1.312000
-0.290188,0.090820,1.311000
-0.286392,0.090751,1.310000
-0.282169,0.090543,1.307000
-0.281586,0.091513,1.321000
-0.284084,0.093522,1.350000
-0.284554,0.094907,1.370000
-0.281020,0.094976,1.371000
-0.281728,0.096500,1.393000
-0.281517,0.097747,1.411000
-0.332680,0.096342,1.338000
-0.334930,0.098070,1.362000
-0.331700,0.098214,1.364000
-0.322206,0.096486,1.340000
-0.314270,0.095190,1.322000
-0.309957,0.094974,1.319000
-0.311003,0.096414,1.339000
-0.304594,0.095550,1.327000
-0.298705,0.094830,1.317000
-0.294662,0.094686,1.315000
-0.291074,0.094686,1.315000
-0.287704,0.094758,1.316000
-0.284544,0.094902,1.318000
-0.281800,0.095190,1.322000
-0.278823,0.095406,1.325000
-0.274999,0.095334,1.324000
-0.270566,0.095046,1.320000
-0.269997,0.096126,1.335000
-0.275931,0.099582,1.383000
-0.272944,0.099870,1.387000
-0.344375,0.102385,1.370000
-0.330442,0.099321,1.329000
-0.325340,0.098872,1.323000
-0.322459,0.099096,1.326000
-0.319561,0.099321,1.329000
-0.313795,0.098648,1.320000
-0.310662,0.098798,1.322000
-0.307519,0.098947,1.324000
-0.303447,0.098798,1.322000
-0.298932,0.098499,1.318000
-0.294662,0.098274,1.315000
-0.291074,0.098274,1.315000
-0.287922,0.098424,1.317000
-0.285407,0.098798,1.322000
-0.281800,0.098798,1.322000
-0.277560,0.098573,1.319000
-0.270430,0.097303,1.302000
-0.265852,0.096929,1.297000
-0.267368,0.098798,1.322000
-0.273537,0.102459,1.371000
-0.274715,0.104328,1.396000
-0.341359,0.105194,1.358000
-0.330194,0.102870,1.328000
-0.325094,0.102405,1.322000
-0.321486,0.102405,1.322000
-0.317878,0.102405,1.322000
-0.316410,0.103103,1.331000
-0.310662,0.102405,1.322000
-0.307287,0.102483,1.323000
-0.303447,0.102405,1.322000
-0.299839,0.102405,1.322000
-0.296231,0.102405,1.322000
-0.292402,0.102328,1.321000
-0.288797,0.102328,1.321000
-0.285407,0.102405,1.322000
-0.282013,0.102483,1.323000
-0.278192,0.102405,1.322000
-0.271468,0.101243,1.307000
-0.267286,0.101011,1.304000
-0.267975,0.102638,1.325000
-0.269347,0.104574,1.350000
-0.271763,0.106976,1.381000
-0.341107,0.108820,1.357000
-0.329696,0.106334,1.326000
-0.325094,0.106013,1.322000
-0.321243,0.105933,1.321000
-0.318359,0.106174,1.324000
-0.314746,0.106174,1.324000
-0.309487,0.105612,1.317000
-0.306358,0.105773,1.319000
-0.302529,0.105692,1.318000
-0.298932,0.105692,1.318000
-0.295335,0.105692,1.318000
-0.292180,0.105853,1.320000
-0.289234,0.106093,1.323000
-0.286055,0.106254,1.325000
-0.283079,0.106494,1.328000
-0.279454,0.106494,1.328000
-0.275830,0.106494,1.328000
-0.273231,0.106895,1.333000
-0.270806,0.107377,1.339000
-0.268549,0.107938,1.346000
-0.267630,0.109061,1.360000
-0.269158,0.111226,1.387000
-0.269582,0.112990,1.409000
-0.246269,0.111146,1.386000
-0.342616,0.113021,1.363000
-0.331685,0.110616,1.334000
-0.327307,0.110367,1.331000
-0.323918,0.110450,1.332000
-0.318119,0.109704,1.323000
-0.313795,0.109455,1.320000
-0.309252,0.109124,1.316000
-0.306125,0.109289,1.318000
-0.302069,0.109124,1.316000
-0.298705,0.109207,1.317000
-0.295111,0.109207,1.317000
-0.291959,0.109372,1.319000
-0.289234,0.109704,1.323000
-0.287135,0.110284,1.330000
-0.286702,0.111528,1.345000
-0.286819,0.113021,1.363000
-0.285800,0.114099,1.376000
-0.281225,0.113767,1.372000
-0.276065,0.113187,1.365000
-0.270544,0.112440,1.356000
-0.270582,0.114016,1.375000
-0.265859,0.113601,1.370000
-0.262312,0.113684,1.371000
-0.261022,0.114762,1.384000
-0.259104,0.115591,1.394000
-0.251856,0.115757,1.396000
-0.346386,0.118025,1.378000
-0.331685,0.114257,1.334000
-0.327307,0.114000,1.331000
-0.322945,0.113743,1.328000
-0.317878,0.113229,1.322000
-0.313557,0.112972,1.319000
-0.309722,0.112886,1.318000
-0.305893,0.112801,1.317000
-0.301840,0.112629,1.315000
-0.298705,0.112801,1.317000
-0.295559,0.112972,1.319000
-0.292402,0.113143,1.321000
-0.289234,0.113315,1.323000
-0.287566,0.114085,1.332000
-0.288834,0.116055,1.355000
-0.293343,0.119396,1.394000
-0.279705,0.118454,1.383000
-0.273337,0.117340,1.370000
-0.269992,0.117511,1.372000
-0.265277,0.117083,1.367000
-0.261164,0.116912,1.365000
-0.255741,0.116141,1.356000
-0.256873,0.118368,1.382000
-0.251270,0.117511,1.372000
-0.249510,0.118454,1.383000
-0.332680,0.118251,1.338000
-0.326323,0.117279,1.327000
-0.321486,0.116837,1.322000
-0.316916,0.116483,1.318000
-0.313319,0.116483,1.318000
-0.310192,0.116660,1.320000
-0.306590,0.116660,1.320000
-0.302529,0.116483,1.318000
-0.299158,0.116572,1.319000
-0.295783,0.116660,1.320000
-0.292402,0.116748,1.321000
-0.288578,0.116660,1.320000
-0.285623,0.116925,1.323000
-0.286276,0.118693,1.343000
-0.292922,0.123023,1.392000
-0.281930,0.123200,1.394000
-0.272739,0.120814,1.367000
-0.268614,0.120637,1.365000
-0.264501,0.120460,1.363000
-0.260399,0.120284,1.361000
-0.257250,0.120549,1.364000
-0.251669,0.119665,1.354000
-0.251087,0.121167,1.371000
-0.241392,0.118251,1.338000
-0.333674,0.122267,1.342000
-0.326569,0.120991,1.328000
-0.321729,0.120536,1.323000
-0.317638,0.120354,1.321000
-0.314033,0.120354,1.321000
-0.311132,0.120627,1.324000
-0.307287,0.120536,1.323000
-0.302988,0.120262,1.320000
-0.299385,0.120262,1.320000
-0.296231,0.120445,1.322000
-0.292844,0.120536,1.323000
-0.289234,0.120536,1.323000
-0.286055,0.120718,1.325000
-0.284997,0.121811,1.337000
-0.291239,0.126093,1.384000
-0.280716,0.126458,1.388000
-0.273337,0.124818,1.370000
-0.268614,0.124362,1.365000
-0.265083,0.124453,1.366000
-0.266330,0.126822,1.392000
-0.263851,0.127460,1.399000
-0.246509,0.122631,1.346000
-0.246443,0.124453,1.366000
-0.246091,0.126184,1.385000
-0.332929,0.125648,1.339000
-0.325832,0.124334,1.325000
-0.321243,0.123959,1.321000
-0.317157,0.123771,1.319000
-0.313319,0.123677,1.318000
-0.309957,0.123771,1.319000
-0.306590,0.123865,1.320000
-0.303447,0.124053,1.322000
-0.299839,0.124053,1.322000
-0.296007,0.123959,1.321000
-0.292402,0.123959,1.321000
-0.288797,0.123959,1.321000
-0.285623,0.124146,1.323000
-0.283505,0.124803,1.330000
-0.287030,0.127994,1.364000
-0.288500,0.130340,1.389000
-0.283684,0.129870,1.384000
-0.276267,0.128181,1.366000
-0.271142,0.127525,1.359000
-0.266646,0.127149,1.355000
-0.262172,0.126774,1.351000
-0.269200,0.132029,1.407000
-0.251297,0.126868,1.352000
-0.251270,0.128744,1.372000
-0.247706,0.128838,1.373000
-0.247158,0.130527,1.391000
-0.344124,0.132199,1.369000
-0.331685,0.128819,1.334000
-0.325832,0.127950,1.325000
-0.322216,0.127950,1.325000
-0.317878,0.127660,1.322000
-0.312606,0.126984,1.315000
-0.307138,0.126212,1.307000
-0.304267,0.126502,1.310000
-0.303217,0.127564,1.321000
-0.300746,0.128047,1.326000
-0.296679,0.127854,1.324000
-0.292844,0.127757,1.323000
-0.289234,0.127757,1.323000
-0.285839,0.127854,1.324000
-0.283292,0.128336,1.329000
-0.282400,0.129592,1.342000
-0.280815,0.130557,1.352000
-0.277330,0.130654,1.353000
-0.273840,0.130751,1.354000
-0.270544,0.130944,1.356000
-0.267237,0.131137,1.358000
-0.263919,0.131330,1.360000
-0.266712,0.134613,1.394000
-0.259890,0.133068,1.378000
-0.250182,0.129978,1.346000
-0.251637,0.132682,1.374000
-0.248789,0.133165,1.379000
-0.247158,0.134323,1.391000
-0.340605,0.134545,1.355000
-0.330442,0.131963,1.329000
-0.325340,0.131368,1.323000
-0.321729,0.131368,1.323000
-0.317157,0.130970,1.319000
-0.311418,0.130077,1.310000
-0.306198,0.129382,1.303000
-0.303803,0.129878,1.308000
-0.303906,0.131467,1.324000
-0.300519,0.131566,1.325000
-0.296455,0.131368,1.323000
-0.292623,0.131268,1.322000
-0.289015,0.131268,1.322000
-0.285623,0.131368,1.323000
-0.282652,0.131665,1.326000
-0.280717,0.132460,1.334000
-0.278323,0.133056,1.340000
-0.275485,0.133453,1.344000
-0.272627,0.133850,1.348000
-0.270344,0.134545,1.355000
-0.267630,0.135041,1.360000
-0.266636,0.136432,1.374000
-0.266904,0.138517,1.395000
-0.260645,0.137226,1.382000
-0.254750,0.138120,1.391000
-0.252217,0.138815,1.398000
-0.339348,0.137733,1.350000
-0.330194,0.135488,1.328000
-0.325340,0.134978,1.323000
-0.321972,0.135080,1.324000
-0.318119,0.134978,1.323000
-0.313319,0.134468,1.318000
-0.308547,0.133958,1.313000
-0.306590,0.134672,1.320000
-0.305513,0.135794,1.331000
-0.300973,0.135386,1.327000
-0.296903,0.135182,1.325000
-0.293066,0.135080,1.324000
-0.289671,0.135182,1.325000
-0.286271,0.135284,1.326000
-0.283292,0.135590,1.329000
-0.280717,0.136100,1.334000
-0.278115,0.136611,1.339000
-0.275485,0.137121,1.344000
-0.273233,0.137835,1.351000
-0.271541,0.138855,1.361000
-0.269795,0.139875,1.371000
-0.268964,0.141406,1.386000
-0.341610,0.142360,1.359000
-0.330442,0.139217,1.329000
-0.324848,0.138379,1.321000
-0.321243,0.138379,1.321000
-0.317878,0.138484,1.322000
-0.315459,0.139008,1.327000
-0.313012,0.139531,1.332000
-0.312164,0.140789,1.344000
-0.306431,0.139846,1.335000
-0.300746,0.138903,1.326000
-0.296679,0.138693,1.324000
-0.292844,0.138589,1.323000
-0.289453,0.138693,1.324000
-0.286271,0.138903,1.326000
-0.283292,0.139217,1.329000
-0.280717,0.139741,1.334000
-0.278115,0.140265,1.339000
-0.275690,0.140893,1.345000
-0.273638,0.141731,1.353000
-0.272140,0.142884,1.364000
-0.270385,0.143931,1.374000
-0.271293,0.146445,1.398000
-0.333177,0.144027,1.340000
-0.325832,0.142414,1.325000
-0.322216,0.142414,1.325000
-0.318599,0.142414,1.325000
-0.316172,0.142952,1.330000
-0.313012,0.143167,1.332000
-0.313326,0.144994,1.349000
-0.305972,0.143274,1.333000
-0.301200,0.142737,1.328000
-0.297127,0.142522,1.326000
-0.293509,0.142522,1.326000
-0.290108,0.142629,1.327000
-0.287135,0.142952,1.330000
-0.284358,0.143382,1.334000
-0.281559,0.143812,1.338000
-0.278530,0.144134,1.341000
-0.276715,0.145101,1.350000
-0.274851,0.146069,1.359000
-0.273337,0.147251,1.370000
-0.271763,0.148433,1.381000
-0.274980,0.152303,1.417000
-0.336907,0.149337,1.355000
-0.327307,0.146692,1.331000
-0.322459,0.146141,1.326000
-0.318359,0.145920,1.324000
-0.315459,0.146251,1.327000
-0.312072,0.146361,1.328000
-0.310306,0.147243,1.336000
-0.304594,0.146251,1.327000
-0.300746,0.146141,1.326000
-0.297127,0.146141,1.326000
-0.293509,0.146141,1.326000
-0.290327,0.146361,1.328000
-0.287566,0.146802,1.332000
-0.284997,0.147353,1.337000
-0.281769,0.147573,1.339000
-0.278530,0.147794,1.341000
-0.276715,0.148786,1.350000
-0.275862,0.150329,1.364000
-0.274534,0.151651,1.376000
-0.274124,0.153525,1.393000
-0.263943,0.161240,1.463000
-0.259951,0.161240,1.463000
-0.256133,0.161350,1.464000
-0.421547,0.148969,1.319000
-0.423651,0.151002,1.337000
-0.330504,0.151792,1.344000
-0.324647,0.150776,1.335000
-0.319561,0.150098,1.329000
-0.315934,0.150098,1.329000
-0.312307,0.150098,1.329000
-0.309609,0.150550,1.333000
-0.305513,0.150324,1.331000
-0.301653,0.150211,1.330000
-0.298024,0.150211,1.330000
-0.294615,0.150324,1.331000
-0.291202,0.150437,1.332000
-0.288214,0.150776,1.335000
-0.285210,0.151115,1.338000
-0.283032,0.151905,1.345000
-0.280815,0.152696,1.352000
-0.278765,0.153599,1.360000
-0.277683,0.155068,1.373000
-0.278524,0.157665,1.396000
-0.264090,0.162860,1.442000
-0.259974,0.162747,1.441000
-0.256930,0.163312,1.446000
-0.253859,0.163877,1.451000
-0.251965,0.165232,1.463000
-0.424846,0.151180,1.307000
-0.420312,0.150833,1.304000
-0.418351,0.151412,1.309000
-0.417314,0.152337,1.317000
-0.414348,0.152568,1.319000
-0.410748,0.152568,1.319000
-0.407457,0.152684,1.320000
-0.403243,0.152453,1.318000
-0.399040,0.152221,1.316000
-0.395748,0.152337,1.317000
-0.393941,0.153031,1.323000
-0.394756,0.154766,1.338000
-0.320756,0.152568,1.319000
-0.319321,0.153609,1.328000
-0.315221,0.153378,1.326000
-0.311367,0.153262,1.325000
-0.308680,0.153725,1.329000
-0.306431,0.154419,1.335000
-0.301880,0.153956,1.331000
-0.298024,0.153841,1.330000
-0.294173,0.153725,1.329000
-0.290327,0.153609,1.328000
-0.287135,0.153841,1.330000
-0.284358,0.154303,1.334000
-0.283032,0.155576,1.345000
-0.284554,0.158468,1.370000
-0.282865,0.159624,1.380000
-0.283750,0.162285,1.403000
-0.266353,0.165755,1.433000
-0.260977,0.164829,1.425000
-0.258711,0.165870,1.434000
-0.255864,0.166564,1.440000
